3.848,3.861,3.875,3.875,3.888,3.902,3.916,3.916,3.93,3.93,3.93,3.944,3.944,3.944,3.944,3.944,3.944,3.944,3.944,3.944,3.944,3.944,3.944,3.944,3.944,3.944,3.944,3.944,3.958,3.958,3.958,3.958,3.958,3.958,3.958,3.958,3.958,3.958,3.944,3.93,3.916,3.916,3.902,3.888,3.888,3.888,3.875,3.888,3.888,3.902,3.902,3.916,3.93,3.93,3.944,3.958,3.972,3.972,3.986,3.986,4.001,4.001,4.001,4.015,4.015,4.015,4.015,4.015,4.015,4.001,4.001,3.986,3.986,3.986,3.986,4.001,3.986,3.986,3.986,3.986,3.986,4.001,4.001,4.015,4.015,4.015,4.03,4.045,4.045,4.059,4.059,4.074,4.074,4.089,4.089,4.104,0,0,4.12,0,0,0,0,0,0,0,0,0,0,0,0,0,0,0,1.911,1.914,0,1.914,1.924,1.937,1.955,1.965,1.975,1.982,0,0,2.019,2.022,2.026,2.037,2.033,2.048,2.048,2.048,2.048,2.052,2.056,2.052,2.056,2.064,2.064,2.071,2.079,2.087,2.091,2.095,2.099,2.107,2.111,2.111,2.119,2.115,2.115,2.115,2.115,2.111,2.107,2.103,2.099,2.095,2.091,2.087,2.087,2.087,2.091,2.091,2.095,2.099,2.099,2.103,2.107,2.107,2.111,2.111,2.111,2.111,2.111,2.111,2.111,2.111,2.111,2.115,2.115,2.115,2.119,2.119,2.123,2.123,2.127,2.127,2.127,2.131,2.131,2.131,2.131,2.127,2.123,2.123,2.123,2.119,2.119,2.115,2.115,2.111,2.111,2.111,2.107,2.099,2.095,2.095,2.095,2.095,2.099,2.099,2.103,2.103,2.111,2.115,2.115,2.119,2.119,2.119,2.127,2.131,2.135,2.144,2.139,2.144,2.148,2.152,2.156,2.156,2.16,2.16,2.169,2.173,0,0,0,0,0,0,0,0,0,0,0,0,0,0,0,0,0,0,0,0,0,0,0,0,0,0,0,0,0,0,0,0,0,0,0,0,0,0,0,0,0,4.23,4.246,4.262,4.295,4.295,4.295,4.312,4.329,4.329,4.329,4.329,4.312,4.312,4.312,4.312,4.329,4.329,4.346,4.346,4.346,4.346,4.346,4.346,4.346,4.346,4.346,4.346,4.346,4.329,4.312,4.312,4.312,4.312,4.312,4.312,4.312,4.312,4.329,4.329,4.329,4.346,4.346,4.346,4.346,4.346,4.346,4.346,4.346,4.329,4.329,4.329,4.312,4.312,4.312,4.295,4.295,4.295,4.279,4.279,4.262,4.246,4.23,4.214,4.198,4.182,4.151,4.135,4.104,4.074,4.059,4.03,4.015,4.001,3.972,3.958,3.944,3.93,3.916,3.902,3.888,3.875,3.861,3.835,3.821,3.795,3.782,3.757,3.744,3.719,3.706,3.694,3.67,3.657,3.645,3.633,3.622,3.61,3.586,3.575,3.552,3.541,3.518,3.496,3.474,3.452,3.442,3.42,3.399,3.389,3.379,3.358,3.348,3.338,3.328,3.318,3.308,3.298,3.288,3.279,3.269,3.259,3.259,3.25,3.24,3.231,3.222,3.203,3.185,3.166,3.157,3.139,3.122,3.104,3.087,3.078,3.07,3.053,3.045,3.036,3.028,3.02,3.011,3.003,2.995,2.979,2.971,2.955,2.94,2.924,2.909,2.894,2.878,2.864,2.849,2.842,2.827,2.82,2.813,2.806,2.791,2.784,2.777,2.771,2.764,2.757,2.743,2.736,2.723,2.716,2.703,2.69,2.677,2.67,2.658,2.645,2.632,2.626,2.62,2.608,2.601,2.601,2.595,2.589,2.583,2.577,2.571,2.565,2.565,2.559,2.553,2.548,2.542,2.536,2.53,2.524,2.519,2.507,2.502,2.49,2.485,2.479,2.479,2.474,2.468,2.463,2.457,2.452,2.446,2.441,2.43,2.425,2.42,2.409,2.404,2.399,2.388,2.383,2.373,2.363,2.353,2.348,2.333,2.323,2.318,2.314,2.309,2.299,2.294,2.29,2.29,2.285,2.285,2.28,2.276,2.271,2.266,2.262,2.262,2.257,2.252,2.248,2.243,2.239
3.848,3.861,3.875,3.888,3.902,3.916,3.93,3.93,3.93,3.944,3.958,3.958,3.958,3.958,3.972,3.972,3.972,3.972,3.972,3.972,3.972,3.972,3.972,3.972,3.972,3.972,3.972,3.972,3.972,3.972,3.972,3.972,3.972,3.972,3.972,3.972,3.958,3.944,3.944,3.93,3.916,3.916,3.902,3.888,3.888,3.888,3.888,3.888,3.888,3.902,3.902,3.916,3.916,3.93,3.944,3.958,3.972,3.972,3.986,3.986,4.001,4.001,4.001,4.015,4.015,4.015,4.015,4.015,4.015,4.015,4.015,4.001,4.001,4.001,4.001,4.001,4.001,4.001,4.001,4.015,4.015,4.015,4.015,4.03,4.03,4.03,4.045,4.059,4.074,4.074,4.089,4.089,4.104,4.104,4.12,4.12,4.12,0,0,4.166,0,0,0,0,0,0,0,0,0,0,0,0,0,0,0,1.891,1.894,1.901,1.911,1.921,1.937,1.948,1.951,1.972,0,0,2,2.008,2.011,2.019,2.019,2.037,2.037,2.037,2.037,2.037,2.041,2.041,2.045,2.056,2.056,2.068,2.079,2.087,2.091,2.095,2.103,2.107,2.115,2.119,2.123,2.123,2.123,2.123,2.123,2.119,2.115,2.107,2.103,2.099,2.095,2.095,2.091,2.091,2.091,2.095,2.099,2.099,2.103,2.107,2.111,2.111,2.111,2.111,2.111,2.115,2.115,2.111,2.111,2.115,2.115,2.119,2.119,2.119,2.119,2.123,2.127,2.127,2.127,2.131,2.131,2.131,2.135,2.135,2.131,2.127,2.123,2.123,2.119,2.123,2.123,2.119,2.119,2.115,2.111,2.107,2.107,2.099,2.095,2.095,2.095,2.095,2.091,2.091,0,2.099,2.103,2.107,2.107,2.107,2.111,2.115,2.115,0,0,0,2.127,2.131,2.131,2.135,2.135,0,0,0,0,0,0,0,0,0,0,0,0,0,0,0,0,0,0,0,0,0,0,0,0,0,0,0,0,0,0,4.295,4.279,0,4.279,0,4.262,0,0,0,0,4.246,4.246,0,4.214,4.214,4.23,4.23,4.246,4.279,4.295,4.295,4.312,4.329,4.329,4.346,4.346,4.346,4.346,4.346,4.346,4.363,4.363,4.363,4.363,4.38,4.38,4.38,4.38,4.38,4.38,4.363,4.363,4.363,4.346,4.346,4.346,4.346,4.346,4.329,4.329,4.329,4.329,4.329,4.329,4.346,4.346,4.363,4.363,4.363,4.363,4.363,4.363,4.363,4.363,4.346,4.346,4.346,4.329,4.329,4.329,4.312,4.312,4.295,4.295,4.279,4.262,4.246,4.23,4.214,4.198,4.182,4.151,4.135,4.104,4.074,4.059,4.045,4.015,4.001,3.972,3.958,3.944,3.93,3.93,3.916,3.888,3.875,3.861,3.848,3.821,3.808,3.782,3.769,3.744,3.719,3.706,3.694,3.682,3.657,3.645,3.633,3.622,3.598,3.586,3.563,3.552,3.529,3.507,3.496,3.474,3.452,3.442,3.42,3.399,3.389,3.379,3.368,3.348,3.338,3.338,3.328,3.318,3.298,3.288,3.288,3.279,3.269,3.259,3.25,3.24,3.231,3.222,3.203,3.194,3.175,3.157,3.139,3.122,3.104,3.087,3.078,3.061,3.053,3.045,3.036,3.028,3.02,3.011,3.003,2.995,2.979,2.971,2.955,2.94,2.924,2.909,2.894,2.878,2.864,2.849,2.842,2.827,2.82,2.813,2.799,2.791,2.784,2.777,2.771,2.757,2.75,2.743,2.736,2.723,2.716,2.703,2.69,2.683,2.67,2.658,2.645,2.639,2.626,2.62,2.608,2.601,2.601,2.595,2.589,2.583,2.577,2.577,2.571,2.565,2.559,2.553,2.548,2.542,2.536,2.536,2.524,2.519,2.513,2.502,2.496,2.49,2.485,2.479,2.474,2.468,2.463,2.457,2.452,2.446,2.441,2.43,2.425,2.42,2.409,2.404,2.394,2.388,2.383,2.373,2.363,2.353,2.348,2.333,2.323,2.318,2.309,2.304,2.299,2.294,2.29,2.285,2.285,2.285,2.28,2.276,2.271,2.266,2.262,2.262,2.257,2.252,2.248,2.243,2.239
3.861,3.875,3.888,3.902,3.916,3.916,3.93,3.944,3.944,3.958,3.958,3.972,3.972,3.986,3.986,3.986,4.001,4.001,4.001,4.015,4.015,4.015,4.015,4.015,4.001,4.001,4.001,4.001,4.001,4.001,3.986,3.986,3.986,3.986,3.986,3.972,3.972,3.958,3.958,3.944,3.93,3.916,3.916,3.902,3.902,3.888,3.902,3.902,3.902,3.916,3.916,3.93,3.93,3.944,3.958,3.972,3.972,3.986,3.986,4.001,4.015,4.015,4.015,4.03,4.03,4.015,4.015,4.015,4.015,4.015,4.015,4.03,4.03,4.03,4.03,4.03,4.03,4.03,4.03,4.03,4.03,4.045,4.045,4.045,4.059,4.059,4.074,4.074,4.089,4.104,4.104,4.12,4.12,4.135,4.135,4.135,4.151,0,4.166,4.182,0,0,0,0,0,0,0,0,0,0,0,0,0,0,0,0,0,1.894,1.904,1.914,1.924,1.931,1.941,1.955,1.972,1.986,1.99,1.993,2,0,0,0,0,0,2.022,0,2.026,2.03,2.033,2.048,2.052,2.06,2.079,2.087,2.095,2.103,2.107,2.115,2.119,2.127,2.131,2.131,2.131,2.135,2.131,2.127,2.123,2.115,2.111,2.103,2.099,2.095,2.091,2.091,2.095,2.099,2.103,2.103,2.103,2.111,2.111,2.115,2.115,2.111,2.115,2.115,2.115,2.115,2.115,2.115,2.119,2.119,2.119,2.119,2.123,2.123,2.131,2.131,2.131,2.135,2.135,2.135,2.135,2.135,2.131,2.127,2.123,2.123,2.123,2.123,2.119,2.119,0,0,2.111,2.111,2.103,2.095,2.091,2.091,2.091,2.083,0,0,0,0,2.087,2.091,2.087,0,0,0,0,0,0,0,0,0,0,0,0,0,0,0,0,0,0,0,0,0,4.415,0,0,0,0,0,0,4.469,0,4.451,0,0,0,0,0,0,0,0,0,4.363,4.329,4.329,4.295,4.295,4.295,4.295,4.279,4.262,4.262,0,0,4.262,4.246,4.246,4.23,4.214,4.246,4.246,4.262,4.279,4.295,4.312,4.329,4.346,4.363,4.38,4.38,4.398,4.38,4.398,4.398,4.398,4.398,4.415,4.415,4.415,4.415,4.415,4.415,4.415,4.415,4.398,4.398,4.398,4.38,4.38,4.38,4.38,4.38,4.363,4.363,4.346,4.346,4.346,4.346,4.363,4.363,4.363,4.38,4.38,4.38,4.38,4.38,4.38,4.38,4.363,4.363,4.363,4.346,4.346,4.329,4.329,4.329,4.312,4.295,4.295,4.279,4.246,4.23,4.214,4.198,4.182,4.151,4.135,4.104,4.089,4.059,4.045,4.015,4.001,3.986,3.958,3.958,3.944,3.93,3.916,3.902,3.888,3.861,3.848,3.835,3.808,3.795,3.769,3.744,3.731,3.706,3.694,3.682,3.67,3.645,3.633,3.622,3.598,3.586,3.563,3.552,3.529,3.507,3.496,3.474,3.452,3.442,3.42,3.399,3.389,3.379,3.368,3.358,3.348,3.338,3.328,3.318,3.308,3.298,3.288,3.279,3.269,3.259,3.25,3.25,3.24,3.231,3.212,3.194,3.175,3.157,3.148,3.122,3.104,3.096,3.078,3.061,3.053,3.045,3.036,3.028,3.02,3.011,2.995,2.987,2.979,2.963,2.955,2.94,2.924,2.909,2.894,2.878,2.864,2.849,2.842,2.827,2.82,2.806,2.799,2.791,2.784,2.777,2.764,2.757,2.75,2.743,2.73,2.723,2.716,2.703,2.69,2.683,2.67,2.658,2.645,2.639,2.626,2.62,2.614,2.608,2.601,2.595,2.595,2.589,2.583,2.577,2.571,2.565,2.565,2.559,2.553,2.548,2.542,2.536,2.53,2.524,2.513,2.507,2.502,2.496,2.49,2.485,2.474,2.468,2.463,2.463,2.457,2.452,2.441,2.436,2.425,2.42,2.414,2.404,2.399,2.388,2.383,2.373,2.368,2.353,2.348,2.338,2.323,2.318,2.314,2.304,2.299,2.294,2.29,2.285,2.285,2.285,2.28,2.276,2.271,2.266,2.262,2.262,2.257,2.252,2.248,2.243,2.239
3.861,3.875,3.888,3.916,3.916,3.93,3.944,3.944,3.944,3.958,3.972,3.972,3.986,3.986,4.001,4.001,4.015,4.015,4.03,4.045,4.045,4.045,4.045,4.045,4.045,4.045,4.03,4.03,4.03,4.015,4.015,4.015,4.001,4.001,3.986,3.986,3.972,3.972,3.958,3.958,3.944,3.93,3.93,3.916,3.916,3.916,3.916,3.916,3.93,3.93,3.93,3.944,3.958,3.972,3.972,3.986,3.986,4.001,4.001,4.015,4.015,4.03,4.03,4.03,4.045,4.045,4.045,4.045,4.045,4.045,4.045,4.059,4.059,4.059,4.059,4.059,4.059,4.059,4.059,4.074,4.074,4.074,4.074,4.089,4.089,4.089,4.104,4.104,4.12,4.135,4.135,4.151,4.151,4.166,4.166,4.182,4.182,4.182,4.198,4.198,4.198,4.198,4.198,4.198,0,0,0,0,4.182,0,0,0,0,0,0,0,0,0,0,0,0,0,0,0,0,0,0,0,0,0,0,0,0,0,1.993,0,1.997,2,2.008,2.022,0,0,0,2.075,2.091,2.103,2.107,2.115,0,0,2.139,2.139,2.139,2.139,2.139,2.135,2.127,2.123,2.115,2.111,2.103,2.099,2.095,2.095,2.099,2.099,2.103,2.107,0,0,2.115,2.115,2.115,2.115,2.115,2.115,2.115,2.115,2.115,0,0,0,0,0,0,0,0,0,0,0,0,0,0,0,0,0,0,0,0,0,0,0,0,0,0,0,0,0,0,0,0,0,0,0,0,0,0,0,0,0,0,0,0,0,0,0,0,0,0,0,0,0,0,0,4.398,4.415,4.415,4.415,4.415,4.415,4.433,4.433,4.451,4.451,4.469,4.469,4.469,4.487,4.487,4.469,4.451,4.451,4.451,4.433,4.433,4.415,4.415,4.398,4.38,4.363,4.346,4.329,4.312,4.312,4.295,4.295,4.295,4.279,0,4.262,4.262,4.262,4.262,4.262,4.246,4.246,4.23,4.246,4.262,4.295,4.312,4.329,4.346,4.38,4.398,4.398,4.415,4.415,4.433,4.433,4.433,4.433,4.451,4.451,4.451,4.451,4.451,4.451,4.451,4.451,4.451,4.433,4.433,4.433,4.415,4.415,4.415,4.415,4.415,4.398,4.398,4.38,4.38,4.38,4.38,4.38,4.38,4.38,4.398,4.398,4.398,4.415,4.398,4.398,4.398,4.398,4.38,4.38,4.363,4.363,4.363,4.346,4.329,4.329,4.312,4.295,4.279,4.262,4.246,4.214,4.198,4.182,4.166,4.135,4.104,4.089,4.059,4.045,4.03,4.001,3.986,3.972,3.958,3.944,3.93,3.916,3.902,3.888,3.875,3.861,3.835,3.821,3.795,3.769,3.757,3.731,3.719,3.694,3.682,3.67,3.657,3.633,3.622,3.598,3.586,3.563,3.552,3.529,3.507,3.485,3.474,3.452,3.442,3.42,3.399,3.389,3.379,3.358,3.348,3.338,3.338,3.328,3.318,3.308,3.298,3.288,3.279,3.269,3.269,3.259,3.25,3.24,3.231,3.222,3.203,3.185,3.166,3.148,3.131,3.104,3.096,3.078,3.061,3.053,3.045,3.036,3.028,3.011,3.003,2.995,2.987,2.979,2.963,2.947,2.94,2.924,2.909,2.894,2.878,2.864,2.849,2.842,2.827,2.813,2.806,2.799,2.791,2.784,2.771,2.764,2.757,2.75,2.743,2.73,2.723,2.71,2.703,2.69,2.683,2.67,2.658,2.651,2.639,2.632,2.626,2.614,2.608,2.608,2.601,2.595,2.589,2.583,2.577,2.577,2.571,2.565,2.565,2.559,2.553,2.548,2.542,2.536,2.524,2.519,2.513,2.502,2.502,2.496,2.485,2.479,2.474,2.468,2.463,2.457,2.452,2.441,2.436,2.425,2.42,2.414,2.404,2.399,2.388,2.383,2.378,2.368,2.358,2.348,2.338,2.328,2.318,2.314,2.304,2.299,2.294,2.29,2.285,2.285,2.28,2.28,2.276,2.271,2.266,2.262,2.262,2.257,2.252,2.248,2.243,2.239
3.875,3.888,3.902,3.916,3.93,3.93,3.944,3.944,3.958,3.972,3.972,3.986,3.986,4.001,4.015,4.015,4.03,4.045,4.045,4.059,4.074,4.074,4.089,4.089,4.074,4.074,4.074,4.074,4.059,4.045,4.03,4.03,4.03,4.015,4.001,4.001,3.986,3.986,3.972,3.972,3.958,3.958,3.944,3.944,3.944,3.944,3.944,3.944,3.944,3.958,3.972,3.972,3.972,3.986,3.986,4.001,4.001,4.015,4.015,4.03,4.045,4.059,4.059,4.059,4.074,4.074,4.074,4.074,4.074,4.074,4.074,4.074,4.074,4.074,4.089,4.089,4.089,4.089,4.089,4.104,4.104,4.104,4.104,4.12,4.12,4.135,4.135,4.151,4.151,4.166,4.166,4.182,4.182,4.182,4.198,4.198,4.214,4.214,4.214,4.23,4.214,4.214,4.214,4.214,4.198,4.198,4.198,4.182,4.182,4.166,0,0,0,0,0,0,0,0,0,0,0,0,0,0,0,0,0,0,0,0,0,0,0,0,0,0,0,0,0,0,0,0,0,0,0,0,0,0,0,0,0,2.135,2.139,0,0,0,0,0,0,0,0,0,0,0,0,0,0,0,0,0,0,0,0,0,0,0,0,0,0,0,0,0,0,0,0,0,0,0,0,0,0,0,0,0,0,0,0,0,0,0,0,0,0,0,0,0,0,0,0,0,0,0,0,0,0,0,0,0,0,0,0,0,0,4.363,0,0,0,0,0,0,0,0,0,4.415,4.415,4.415,4.415,4.415,4.415,4.433,4.433,4.433,4.451,4.451,4.469,4.469,4.469,4.469,4.487,4.469,4.451,4.451,4.451,4.451,4.433,4.415,4.415,4.398,4.38,4.38,4.363,4.346,4.329,4.329,4.312,4.312,4.312,4.295,4.295,4.295,4.295,4.279,4.279,4.262,4.246,4.246,4.262,4.279,4.295,4.295,4.329,4.346,4.38,4.398,4.433,4.433,4.451,4.451,4.451,4.469,4.469,4.469,4.469,4.487,4.487,4.487,4.487,4.487,4.487,4.487,4.487,4.469,4.469,4.469,4.451,4.451,4.451,4.451,4.433,4.433,4.433,4.415,4.415,4.415,4.415,4.415,4.415,4.415,4.415,4.415,4.415,4.433,4.415,4.415,4.415,4.398,4.398,4.398,4.38,4.363,4.363,4.363,4.346,4.329,4.312,4.295,4.279,4.262,4.23,4.214,4.198,4.182,4.151,4.135,4.104,4.089,4.074,4.045,4.03,4.015,3.986,3.972,3.972,3.958,3.944,3.93,3.916,3.888,3.875,3.861,3.848,3.821,3.795,3.782,3.757,3.744,3.719,3.706,3.682,3.67,3.657,3.633,3.622,3.598,3.586,3.563,3.552,3.529,3.507,3.485,3.474,3.452,3.442,3.42,3.399,3.389,3.379,3.358,3.348,3.338,3.328,3.318,3.318,3.308,3.298,3.288,3.279,3.279,3.269,3.259,3.25,3.25,3.24,3.222,3.203,3.185,3.166,3.148,3.131,3.104,3.087,3.07,3.061,3.045,3.036,3.028,3.02,3.011,3.003,2.995,2.979,2.971,2.963,2.947,2.932,2.924,2.909,2.894,2.878,2.864,2.849,2.834,2.827,2.813,2.806,2.799,2.791,2.777,2.771,2.764,2.757,2.743,2.736,2.73,2.723,2.71,2.703,2.696,2.683,2.67,2.664,2.651,2.645,2.632,2.626,2.62,2.614,2.608,2.608,2.601,2.595,2.589,2.583,2.577,2.577,2.571,2.565,2.559,2.553,2.548,2.542,2.536,2.53,2.524,2.519,2.507,2.502,2.496,2.49,2.485,2.479,2.474,2.468,2.457,2.452,2.441,2.436,2.425,2.42,2.414,2.404,2.399,2.388,2.383,2.378,2.368,2.358,2.348,2.338,2.328,2.318,2.314,2.304,2.299,2.294,2.29,2.285,2.285,2.28,2.276,2.271,2.271,2.266,2.262,2.257,2.257,2.252,2.248,2.243,2.239
3.902,3.902,3.916,3.93,3.93,3.944,3.944,3.958,3.958,3.972,3.986,3.986,4.001,4.015,4.015,4.045,4.045,4.059,4.074,4.089,4.104,4.12,4.12,4.12,4.12,4.12,4.104,4.104,4.089,4.074,4.059,4.045,4.045,4.03,4.015,4.015,4.001,4.001,3.986,3.986,3.972,3.972,3.972,3.958,3.958,3.958,3.972,3.972,3.986,3.986,3.986,3.986,4.001,4.015,4.015,4.03,4.045,4.045,4.045,4.059,4.074,4.074,4.089,4.089,4.089,4.104,4.104,4.104,4.104,4.104,4.104,4.104,4.12,4.12,4.12,4.12,4.12,4.12,4.12,4.135,4.135,4.151,4.151,4.166,4.166,4.166,4.166,4.182,4.182,4.198,4.198,4.214,4.214,4.214,4.23,4.23,4.23,4.23,4.23,4.246,4.23,4.23,4.214,4.214,4.214,4.198,4.182,4.182,4.182,4.182,4.182,4.182,0,0,0,4.198,0,0,0,0,0,0,0,0,0,0,0,0,0,0,0,0,0,0,0,0,0,0,0,0,0,0,0,0,0,0,0,0,0,0,0,0,0,0,0,0,0,0,0,0,0,0,0,0,0,0,0,0,0,0,0,0,0,0,0,0,0,0,0,0,0,0,0,0,0,0,0,0,0,0,0,0,0,0,0,4.329,0,0,4.312,0,0,0,0,0,4.346,4.346,4.346,0,0,0,0,0,0,0,0,0,0,0,0,0,0,0,4.363,4.38,4.38,0,0,4.415,4.433,0,0,4.433,4.433,4.415,4.415,4.415,4.433,4.415,4.433,4.433,4.433,4.433,4.451,4.451,4.469,4.469,4.469,4.469,4.469,4.469,4.451,4.451,4.451,4.451,4.451,4.433,4.415,4.415,4.398,4.398,4.38,4.363,4.346,4.346,4.329,4.329,4.329,4.329,4.312,4.312,4.312,4.312,4.295,4.295,4.295,4.279,4.295,4.295,4.312,4.329,4.363,4.38,4.398,4.433,4.451,4.451,4.469,4.469,4.469,4.487,4.487,4.487,4.487,4.505,4.505,4.505,4.505,4.505,4.505,4.487,4.487,4.487,4.487,4.487,4.487,4.469,4.469,4.469,4.469,4.469,4.469,4.451,4.433,4.433,4.433,4.433,4.433,4.433,4.433,4.433,4.433,4.433,4.433,4.433,4.433,4.415,4.398,4.398,4.398,4.38,4.363,4.363,4.346,4.329,4.312,4.295,4.279,4.246,4.23,4.214,4.198,4.166,4.151,4.135,4.104,4.089,4.074,4.059,4.03,4.015,4.001,3.986,3.972,3.958,3.944,3.93,3.916,3.902,3.875,3.861,3.848,3.835,3.808,3.782,3.769,3.744,3.719,3.706,3.694,3.67,3.657,3.645,3.622,3.598,3.586,3.575,3.552,3.529,3.507,3.496,3.474,3.452,3.442,3.42,3.399,3.389,3.379,3.358,3.348,3.338,3.328,3.318,3.308,3.308,3.298,3.288,3.279,3.279,3.269,3.259,3.25,3.25,3.24,3.222,3.203,3.185,3.157,3.139,3.122,3.104,3.087,3.07,3.053,3.045,3.036,3.028,3.011,3.003,2.995,2.987,2.979,2.971,2.955,2.94,2.932,2.916,2.901,2.886,2.871,2.864,2.849,2.834,2.827,2.813,2.806,2.799,2.791,2.777,2.771,2.764,2.75,2.743,2.736,2.73,2.716,2.71,2.703,2.696,2.683,2.67,2.664,2.658,2.645,2.639,2.632,2.626,2.614,2.614,2.608,2.601,2.595,2.589,2.589,2.583,2.577,2.577,2.571,2.565,2.559,2.553,2.548,2.542,2.536,2.53,2.519,2.513,2.507,2.502,2.496,2.49,2.479,2.474,2.468,2.457,2.452,2.441,2.436,2.425,2.42,2.414,2.404,2.399,2.394,2.383,2.378,2.368,2.363,2.348,2.343,2.333,2.323,2.314,2.309,2.299,2.294,2.29,2.285,2.285,2.28,2.276,2.271,2.266,2.266,2.262,2.257,2.252,2.248,2.243,2.239,2.234
3.902,3.916,3.93,3.944,3.944,3.958,3.958,3.958,3.972,3.986,3.986,4.001,4.015,4.03,4.03,4.059,4.074,4.089,4.104,4.135,4.135,4.151,4.151,4.151,4.166,4.166,4.151,4.135,4.12,4.104,4.089,4.074,4.059,4.045,4.045,4.03,4.015,4.015,4.015,4.001,4.001,4.001,4.001,4.001,4.001,4.001,4.001,4.001,4.015,4.015,4.03,4.03,4.045,4.045,4.045,4.059,4.059,4.074,4.089,4.089,4.104,4.104,4.12,4.12,4.135,4.135,4.135,4.135,4.135,4.135,4.135,4.135,4.135,4.151,4.151,4.151,4.151,4.151,4.166,4.182,4.182,4.182,4.198,4.198,4.198,4.214,4.214,4.214,4.23,4.23,4.246,4.246,4.246,4.262,4.262,4.262,4.262,4.262,4.262,4.262,4.246,4.23,4.23,4.214,4.214,4.198,4.198,4.182,4.182,4.182,4.166,4.182,0,0,4.198,4.214,4.214,0,0,0,4.279,0,0,4.329,0,4.346,0,0,0,0,0,0,0,0,0,0,0,0,0,0,0,0,0,0,0,0,0,0,0,0,0,0,0,0,0,0,0,0,0,0,0,0,0,0,0,0,0,0,0,0,0,0,0,0,0,0,0,0,0,0,0,0,0,0,4.451,4.451,0,0,4.469,0,4.451,0,0,0,0,4.363,4.346,4.346,4.329,0,0,0,0,4.346,4.346,4.346,4.346,4.346,4.363,0,0,0,0,0,0,0,0,0,0,0,0,0,4.38,4.398,4.398,4.415,4.415,4.433,4.451,4.433,4.433,4.433,4.433,4.433,4.433,4.433,4.433,4.433,4.433,4.433,4.433,4.433,4.451,4.451,4.451,4.451,4.469,4.469,4.469,4.469,4.451,4.451,4.451,4.451,4.451,4.433,4.433,4.415,4.415,4.415,4.398,4.38,4.363,4.363,4.346,4.346,4.346,4.329,4.329,4.329,4.329,4.329,4.312,4.312,4.312,4.312,4.312,4.329,4.346,4.363,4.38,4.398,4.433,4.469,4.469,4.487,4.505,4.505,4.487,4.505,4.505,4.505,4.505,4.505,4.523,4.523,4.523,4.523,4.505,4.505,4.505,4.505,4.505,4.505,4.505,4.505,4.505,4.505,4.505,4.487,4.487,4.487,4.469,4.469,4.469,4.451,4.451,4.451,4.451,4.451,4.451,4.451,4.451,4.433,4.433,4.433,4.415,4.398,4.398,4.398,4.38,4.363,4.346,4.329,4.312,4.295,4.262,4.246,4.214,4.198,4.182,4.166,4.151,4.12,4.104,4.089,4.074,4.059,4.03,4.015,4.001,3.986,3.972,3.958,3.944,3.93,3.916,3.902,3.888,3.861,3.848,3.835,3.808,3.795,3.769,3.744,3.731,3.706,3.694,3.682,3.657,3.645,3.622,3.61,3.586,3.575,3.552,3.541,3.507,3.496,3.474,3.452,3.442,3.42,3.399,3.389,3.368,3.358,3.348,3.338,3.328,3.318,3.308,3.298,3.298,3.288,3.279,3.279,3.269,3.259,3.25,3.25,3.24,3.222,3.203,3.175,3.157,3.139,3.122,3.104,3.078,3.061,3.053,3.045,3.028,3.02,3.011,3.003,2.995,2.979,2.971,2.963,2.947,2.94,2.924,2.909,2.901,2.886,2.871,2.856,2.849,2.834,2.827,2.813,2.806,2.799,2.791,2.777,2.771,2.764,2.75,2.743,2.736,2.723,2.716,2.71,2.703,2.696,2.69,2.677,2.664,2.658,2.651,2.645,2.639,2.626,2.62,2.614,2.614,2.608,2.601,2.595,2.589,2.589,2.583,2.577,2.571,2.565,2.559,2.559,2.553,2.548,2.536,2.53,2.524,2.519,2.513,2.507,2.496,2.49,2.485,2.474,2.468,2.457,2.452,2.441,2.43,2.425,2.42,2.414,2.404,2.399,2.394,2.388,2.378,2.373,2.363,2.353,2.343,2.333,2.328,2.318,2.309,2.299,2.294,2.29,2.285,2.285,2.28,2.276,2.266,2.266,2.262,2.257,2.257,2.252,2.248,2.243,2.239,2.234
3.93,3.93,3.944,3.958,3.958,3.972,3.972,3.972,3.986,3.986,4.001,4.015,4.03,4.03,4.059,4.074,4.089,4.104,4.135,4.151,4.166,4.182,4.198,4.198,4.198,4.198,4.182,4.166,4.151,4.12,4.12,4.104,4.074,4.074,4.059,4.045,4.045,4.03,4.03,4.03,4.03,4.03,4.03,4.03,4.03,4.03,4.045,4.045,4.059,4.059,4.074,4.074,4.074,4.089,4.089,4.104,4.104,4.12,4.12,4.135,4.135,4.151,4.151,4.166,4.166,4.166,4.182,4.182,4.182,4.182,4.182,4.182,4.182,4.182,4.182,4.182,4.198,4.198,4.198,4.214,4.23,4.23,4.23,4.246,4.246,4.246,4.262,4.262,4.262,4.279,4.279,4.279,4.295,4.279,4.295,4.295,4.279,4.279,4.279,4.262,4.246,4.246,4.23,4.214,4.214,4.198,4.182,4.198,4.166,4.182,4.182,4.182,4.182,4.198,4.198,4.198,4.23,0,0,0,0,4.312,0,4.329,4.346,4.363,4.38,0,0,0,0,0,0,0,0,0,0,0,0,0,0,0,0,0,0,0,0,0,0,0,0,0,0,0,0,0,0,0,0,0,0,0,0,0,0,0,0,0,0,0,0,0,0,0,0,0,0,0,0,4.363,0,0,4.415,4.433,4.433,4.451,4.469,4.469,4.487,4.469,4.469,0,0,0,4.398,4.38,4.363,4.363,4.346,0,4.346,0,4.346,4.363,4.346,4.346,4.346,4.346,4.346,4.363,0,0,0,0,0,0,0,0,4.38,4.38,4.38,4.38,4.38,4.398,4.415,4.415,4.415,4.433,4.451,4.451,4.451,4.451,4.433,4.433,4.433,4.433,4.433,4.433,4.433,4.433,4.451,4.451,4.451,4.451,4.469,4.469,4.469,4.469,4.469,4.469,4.451,4.451,4.451,4.451,4.451,4.433,4.433,4.433,4.415,4.415,4.415,4.398,4.38,4.38,4.38,4.38,4.363,4.363,4.363,4.363,4.363,4.363,4.346,4.346,4.346,4.346,4.346,4.363,4.38,4.398,4.415,4.451,4.469,4.487,4.505,4.523,4.523,4.523,4.523,4.523,4.523,4.523,4.523,4.523,4.523,4.523,4.523,4.523,4.523,4.523,4.523,4.523,4.523,4.523,4.523,4.523,4.523,4.523,4.523,4.523,4.523,4.505,4.505,4.487,4.487,4.469,4.469,4.469,4.469,4.451,4.451,4.451,4.451,4.451,4.433,4.433,4.415,4.415,4.398,4.38,4.38,4.346,4.346,4.329,4.312,4.279,4.262,4.23,4.214,4.198,4.166,4.151,4.135,4.12,4.104,4.089,4.074,4.059,4.03,4.015,4.001,4.001,3.986,3.958,3.944,3.944,3.93,3.916,3.888,3.875,3.861,3.835,3.821,3.795,3.769,3.757,3.731,3.719,3.694,3.682,3.67,3.645,3.622,3.61,3.586,3.575,3.552,3.541,3.518,3.496,3.474,3.452,3.442,3.42,3.399,3.389,3.368,3.358,3.338,3.328,3.318,3.308,3.308,3.298,3.298,3.288,3.279,3.279,3.269,3.259,3.25,3.24,3.231,3.222,3.194,3.175,3.157,3.139,3.122,3.096,3.078,3.061,3.045,3.036,3.028,3.02,3.003,2.995,2.987,2.979,2.963,2.955,2.94,2.932,2.916,2.909,2.894,2.878,2.871,2.856,2.849,2.834,2.827,2.813,2.806,2.799,2.791,2.777,2.771,2.764,2.75,2.743,2.736,2.723,2.716,2.71,2.703,2.696,2.69,2.683,2.67,2.664,2.651,2.645,2.639,2.632,2.626,2.62,2.614,2.614,2.608,2.601,2.595,2.589,2.589,2.583,2.577,2.571,2.565,2.559,2.553,2.548,2.542,2.536,2.53,2.519,2.513,2.507,2.502,2.49,2.485,2.474,2.468,2.457,2.446,2.436,2.43,2.425,2.42,2.409,2.404,2.399,2.394,2.388,2.378,2.373,2.363,2.353,2.343,2.338,2.328,2.318,2.309,2.299,2.294,2.29,2.285,2.28,2.276,2.271,2.266,2.262,2.262,2.257,2.252,2.248,2.248,2.243,2.239,2.234
3.958,3.958,3.972,3.972,3.986,3.986,4.001,4.001,4.001,4.015,4.015,4.015,4.045,4.059,4.059,4.089,4.104,4.135,4.151,4.166,4.182,4.198,4.214,4.214,4.214,4.214,4.198,4.182,4.166,4.151,4.12,4.12,4.089,4.074,4.059,4.059,4.059,4.059,4.059,4.059,4.059,4.059,4.059,4.074,4.074,4.074,4.089,4.089,4.104,4.104,4.104,4.12,4.12,4.135,4.151,4.151,4.151,4.151,4.166,4.182,4.182,4.198,4.198,4.214,4.214,4.214,4.214,4.214,4.23,4.214,4.214,4.214,4.214,4.214,4.214,4.214,4.214,4.23,4.23,4.246,4.262,4.262,4.279,4.279,4.279,4.295,4.295,4.295,4.295,4.295,4.295,4.295,4.312,4.312,4.312,4.312,4.295,4.295,4.295,4.279,4.262,4.246,4.23,4.214,4.214,4.198,4.182,4.182,4.182,4.182,4.166,4.182,4.182,4.198,4.198,4.214,4.23,0,0,0,4.295,0,4.329,4.346,4.363,4.38,4.38,4.398,0,0,0,0,0,0,0,0,4.523,0,0,0,0,0,0,0,0,0,0,0,0,0,0,0,0,0,0,0,0,0,0,0,0,0,0,0,0,0,0,0,0,0,0,0,0,0,0,0,0,0,4.329,4.346,4.363,4.38,4.398,4.415,4.433,4.451,4.469,4.469,4.487,4.487,4.487,4.451,4.451,4.433,4.415,4.398,4.38,4.38,4.363,4.363,4.363,4.363,4.363,4.363,4.363,4.346,4.346,4.346,4.363,4.363,4.346,4.363,4.363,4.363,4.38,0,0,4.38,4.38,4.38,4.38,4.398,4.398,4.415,4.415,4.415,4.433,4.451,4.451,4.451,4.451,4.451,4.451,4.451,4.451,4.451,4.451,4.451,4.451,4.451,4.451,4.451,4.451,4.469,4.469,4.469,4.469,4.469,4.469,4.469,4.451,4.451,4.451,4.451,4.451,4.451,4.451,4.451,4.433,4.433,4.433,4.415,4.415,4.398,4.398,4.398,4.398,4.398,4.398,4.398,4.398,4.38,4.38,4.38,4.38,4.38,4.398,4.398,4.415,4.451,4.469,4.487,4.505,4.523,4.542,4.542,4.542,4.561,4.542,4.542,4.542,4.542,4.542,4.542,4.542,4.542,4.542,4.542,4.542,4.542,4.542,4.542,4.542,4.542,4.542,4.542,4.542,4.542,4.542,4.542,4.542,4.542,4.523,4.505,4.505,4.505,4.487,4.487,4.487,4.469,4.469,4.469,4.451,4.451,4.451,4.433,4.415,4.415,4.398,4.38,4.363,4.346,4.329,4.312,4.295,4.279,4.246,4.23,4.198,4.182,4.166,4.151,4.12,4.104,4.089,4.074,4.059,4.045,4.03,4.015,4.015,4.001,3.986,3.972,3.958,3.944,3.93,3.916,3.902,3.875,3.861,3.835,3.821,3.795,3.782,3.757,3.731,3.719,3.694,3.682,3.67,3.645,3.622,3.61,3.586,3.575,3.552,3.541,3.507,3.496,3.474,3.452,3.431,3.41,3.399,3.379,3.368,3.348,3.338,3.328,3.318,3.308,3.298,3.298,3.288,3.288,3.279,3.269,3.269,3.259,3.25,3.24,3.231,3.212,3.194,3.166,3.148,3.131,3.113,3.087,3.07,3.061,3.045,3.036,3.02,3.011,3.003,2.995,2.979,2.971,2.963,2.947,2.932,2.924,2.916,2.901,2.886,2.878,2.864,2.856,2.842,2.834,2.827,2.813,2.806,2.799,2.791,2.784,2.771,2.764,2.757,2.743,2.736,2.73,2.716,2.71,2.703,2.696,2.69,2.683,2.677,2.664,2.658,2.651,2.645,2.639,2.632,2.626,2.62,2.614,2.614,2.608,2.601,2.595,2.589,2.589,2.583,2.571,2.571,2.565,2.559,2.553,2.548,2.536,2.53,2.524,2.519,2.507,2.502,2.49,2.479,2.474,2.463,2.452,2.446,2.436,2.43,2.42,2.414,2.409,2.404,2.399,2.394,2.383,2.378,2.373,2.363,2.358,2.343,2.338,2.328,2.318,2.309,2.304,2.294,2.29,2.285,2.28,2.276,2.271,2.266,2.262,2.257,2.252,2.252,2.248,2.243,2.239,2.234,2.234
3.986,3.986,4.001,4.001,4.001,4.015,4.015,4.015,4.015,4.03,4.03,4.045,4.045,4.059,4.074,4.089,4.12,4.135,4.151,4.166,4.182,4.198,4.214,4.23,4.23,4.23,4.214,4.198,4.182,4.166,4.135,4.12,4.104,4.089,4.074,4.074,4.074,4.074,4.074,4.089,4.089,4.089,4.104,4.104,4.12,4.12,4.135,4.135,4.151,4.151,4.151,4.166,4.166,4.182,4.182,4.198,4.198,4.198,4.214,4.23,4.23,4.246,4.246,4.246,4.262,4.262,4.262,4.262,4.262,4.246,4.246,4.246,4.246,4.246,4.246,4.246,4.23,4.246,4.246,4.262,4.279,4.279,4.295,4.295,4.295,4.312,4.312,4.312,4.312,4.312,4.312,4.329,4.329,4.329,4.312,4.329,4.312,4.312,4.312,4.279,4.262,4.246,4.246,4.23,4.214,4.198,4.198,4.182,4.166,4.166,4.182,4.182,4.182,4.198,4.198,4.214,4.246,4.246,0,4.279,4.312,0,0,4.363,4.38,4.398,4.398,4.415,4.433,0,0,0,0,0,4.542,4.542,4.542,0,4.542,4.523,0,0,0,0,0,0,0,0,4.505,4.505,0,0,0,0,0,0,0,0,0,0,0,0,0,0,0,0,0,0,4.312,4.312,4.312,4.312,0,0,0,0,0,4.312,4.329,4.346,4.363,4.38,4.398,4.415,4.433,4.451,4.469,4.469,4.487,4.487,4.487,4.469,4.469,4.451,4.433,4.415,4.415,4.398,4.38,4.38,4.363,4.363,4.363,4.363,4.363,4.363,4.363,4.363,4.363,4.363,4.363,4.363,4.363,4.363,4.363,4.38,4.38,4.398,4.398,4.398,4.415,4.415,4.433,4.433,4.433,4.451,4.451,4.469,4.469,4.469,4.469,4.469,4.451,4.451,4.451,4.469,4.469,4.451,4.451,4.451,4.451,4.469,4.469,4.469,4.469,4.469,4.469,4.469,4.469,4.469,4.469,4.469,4.469,4.451,4.451,4.451,4.451,4.451,4.451,4.451,4.451,4.451,4.433,4.433,4.433,4.433,4.433,4.415,4.415,4.415,4.415,4.433,4.433,4.433,4.433,4.433,4.451,4.451,4.469,4.505,4.505,4.523,4.542,4.561,4.579,4.579,4.579,4.579,4.579,4.561,4.561,4.561,4.561,4.561,4.542,4.542,4.542,4.542,4.542,4.542,4.542,4.542,4.561,4.561,4.561,4.561,4.561,4.579,4.579,4.579,4.561,4.561,4.542,4.542,4.523,4.523,4.505,4.505,4.487,4.487,4.487,4.469,4.469,4.469,4.451,4.433,4.415,4.415,4.398,4.38,4.363,4.346,4.329,4.312,4.279,4.262,4.23,4.214,4.198,4.182,4.151,4.135,4.12,4.104,4.089,4.074,4.059,4.045,4.03,4.015,4.015,4.001,3.986,3.972,3.958,3.944,3.944,3.93,3.902,3.888,3.861,3.848,3.821,3.808,3.782,3.757,3.731,3.719,3.694,3.682,3.67,3.645,3.622,3.61,3.586,3.575,3.552,3.529,3.507,3.485,3.474,3.452,3.431,3.41,3.389,3.379,3.368,3.348,3.338,3.328,3.318,3.308,3.298,3.298,3.288,3.288,3.279,3.269,3.259,3.259,3.24,3.231,3.222,3.203,3.185,3.166,3.139,3.122,3.104,3.087,3.061,3.053,3.036,3.028,3.02,3.011,2.995,2.987,2.979,2.971,2.955,2.94,2.932,2.916,2.909,2.901,2.886,2.871,2.864,2.849,2.842,2.834,2.827,2.813,2.806,2.799,2.791,2.784,2.777,2.764,2.757,2.75,2.736,2.73,2.723,2.71,2.703,2.696,2.69,2.683,2.677,2.67,2.664,2.658,2.651,2.645,2.632,2.626,2.626,2.62,2.614,2.608,2.601,2.595,2.595,2.589,2.583,2.577,2.571,2.565,2.559,2.553,2.548,2.542,2.53,2.524,2.519,2.507,2.496,2.49,2.479,2.468,2.457,2.446,2.441,2.43,2.425,2.42,2.414,2.404,2.399,2.394,2.388,2.383,2.378,2.368,2.363,2.353,2.343,2.338,2.328,2.318,2.314,2.304,2.299,2.294,2.285,2.28,2.276,2.271,2.266,2.262,2.257,2.252,2.248,2.248,2.243,2.239,2.234,2.23
4.015,4.015,4.015,4.03,4.03,4.03,4.03,4.045,4.045,4.045,4.059,4.059,4.074,4.074,4.089,4.104,4.12,4.135,4.151,4.166,4.182,4.198,4.214,4.23,4.23,4.214,4.214,4.214,4.198,4.182,4.151,4.135,4.12,4.104,4.089,4.089,4.089,4.089,4.104,4.104,4.12,4.12,4.135,4.135,4.151,4.166,4.166,4.182,4.182,4.198,4.198,4.214,4.214,4.23,4.23,4.246,4.246,4.246,4.262,4.262,4.279,4.279,4.295,4.295,4.295,4.295,4.295,4.295,4.295,4.279,4.262,4.262,4.262,4.262,4.262,4.262,4.262,4.262,4.279,4.279,4.295,4.295,4.295,4.312,4.329,4.329,4.329,4.329,4.329,4.329,4.329,4.346,4.329,4.346,4.329,4.329,4.329,4.329,4.312,4.295,4.279,4.262,4.246,4.23,4.23,4.198,4.198,4.182,4.182,4.182,4.182,4.182,4.198,4.214,4.23,4.23,4.246,4.262,4.279,4.295,4.329,4.346,4.363,4.38,4.398,4.415,4.433,4.433,4.469,4.487,4.505,4.523,0,4.542,4.542,4.542,0,4.542,4.542,4.542,4.523,0,4.505,4.505,4.505,0,0,4.487,4.487,4.487,4.487,0,0,0,0,0,0,0,0,0,4.451,4.433,0,0,0,0,0,0,4.329,4.329,4.312,4.312,4.312,4.312,4.312,4.312,4.312,4.312,4.329,4.346,4.363,4.38,4.398,4.415,4.433,4.451,4.469,4.487,4.505,4.505,4.505,4.505,4.487,4.469,4.469,4.451,4.433,4.433,4.398,4.398,4.398,4.38,4.38,4.363,4.363,4.363,4.363,4.363,4.363,4.363,4.363,4.363,4.363,4.38,4.38,4.38,4.398,4.398,4.415,4.415,4.433,4.433,4.451,4.451,4.451,4.469,4.469,4.469,4.487,4.487,4.487,4.487,4.469,4.469,4.469,4.469,4.469,4.469,4.469,4.469,4.469,4.469,4.469,4.469,4.469,4.469,4.469,4.469,4.469,4.469,4.469,4.469,4.451,4.451,4.451,4.451,4.469,4.469,4.469,4.451,4.451,4.451,4.469,4.469,4.469,4.469,4.469,4.469,4.469,4.469,4.469,4.469,4.469,4.469,4.487,4.487,4.505,4.505,4.523,4.542,4.561,4.579,4.598,4.618,4.618,4.618,4.618,4.598,4.598,4.598,4.579,4.579,4.579,4.579,4.561,4.561,4.561,4.561,4.561,4.561,4.561,4.561,4.579,4.579,4.579,4.598,4.598,4.598,4.598,4.598,4.598,4.579,4.561,4.561,4.561,4.542,4.523,4.523,4.505,4.505,4.487,4.487,4.469,4.469,4.451,4.433,4.415,4.415,4.398,4.38,4.346,4.346,4.312,4.295,4.262,4.246,4.23,4.198,4.182,4.166,4.151,4.135,4.12,4.104,4.089,4.074,4.059,4.045,4.03,4.015,4.015,4.001,3.986,3.972,3.958,3.944,3.944,3.93,3.902,3.888,3.861,3.848,3.821,3.795,3.769,3.757,3.731,3.706,3.694,3.682,3.657,3.645,3.622,3.598,3.586,3.563,3.552,3.529,3.507,3.485,3.463,3.442,3.42,3.41,3.389,3.379,3.358,3.348,3.338,3.328,3.318,3.308,3.298,3.288,3.288,3.279,3.279,3.269,3.259,3.25,3.24,3.231,3.212,3.194,3.175,3.157,3.139,3.113,3.096,3.078,3.061,3.045,3.036,3.028,3.011,3.003,2.995,2.987,2.971,2.963,2.947,2.94,2.924,2.916,2.909,2.894,2.878,2.871,2.856,2.849,2.842,2.834,2.827,2.82,2.806,2.799,2.791,2.784,2.777,2.764,2.757,2.75,2.743,2.73,2.723,2.716,2.703,2.696,2.69,2.683,2.677,2.67,2.664,2.658,2.651,2.645,2.639,2.632,2.626,2.62,2.62,2.614,2.608,2.595,2.595,2.589,2.583,2.577,2.571,2.565,2.559,2.553,2.548,2.542,2.53,2.524,2.513,2.507,2.496,2.485,2.474,2.463,2.452,2.441,2.436,2.425,2.42,2.414,2.409,2.404,2.399,2.394,2.383,2.378,2.373,2.368,2.358,2.353,2.343,2.338,2.328,2.318,2.314,2.304,2.299,2.294,2.285,2.28,2.276,2.271,2.266,2.262,2.257,2.252,2.248,2.243,2.243,2.239,2.234,2.23
4.059,4.059,4.059,4.059,4.074,4.074,4.074,4.074,4.074,4.074,4.074,4.089,4.089,4.089,4.104,4.12,4.12,4.135,4.151,4.166,4.182,4.198,4.214,4.23,4.214,4.23,4.23,4.214,4.198,4.198,4.166,4.151,4.135,4.12,4.104,4.104,4.12,4.12,4.135,4.135,4.151,4.151,4.166,4.166,4.182,4.182,4.198,4.214,4.23,4.23,4.246,4.246,4.246,4.262,4.279,4.279,4.279,4.295,4.295,4.312,4.312,4.329,4.329,4.329,4.329,4.329,4.312,4.329,4.312,4.295,4.279,4.279,4.279,4.279,4.262,4.262,4.262,4.279,4.279,4.295,4.295,4.312,4.312,4.312,4.346,4.346,4.346,4.346,4.346,4.346,4.346,4.346,4.346,4.346,4.346,4.346,4.346,4.329,4.329,4.295,4.279,4.262,4.262,4.246,4.23,4.214,4.198,4.198,4.198,4.198,4.198,4.198,4.198,4.214,4.23,4.23,4.262,4.279,4.295,4.312,4.346,4.363,4.38,4.38,4.398,4.433,4.433,4.451,4.487,4.487,4.505,4.523,4.542,4.542,4.542,4.542,4.542,4.542,4.542,4.523,4.523,4.523,4.505,4.505,4.505,4.505,4.487,4.487,4.487,4.487,4.487,4.487,0,0,0,0,4.469,4.451,4.451,4.451,4.451,4.433,0,0,0,0,0,4.363,4.346,4.346,4.329,4.312,4.329,4.312,4.312,4.312,4.312,4.312,4.329,4.346,4.363,4.38,4.398,4.415,4.433,4.469,4.469,4.505,4.505,4.523,4.523,4.523,4.523,4.505,4.487,4.487,4.469,4.451,4.433,4.415,4.415,4.398,4.398,4.38,4.38,4.38,4.38,4.363,4.363,4.363,4.363,4.363,4.38,4.38,4.38,4.398,4.398,4.415,4.415,4.433,4.451,4.451,4.451,4.469,4.487,4.487,4.487,4.505,4.505,4.487,4.487,4.487,4.487,4.487,4.487,4.487,4.487,4.487,4.487,4.487,4.487,4.487,4.487,4.487,4.469,4.487,4.487,4.487,4.487,4.487,4.487,4.487,4.469,4.469,4.469,4.487,4.487,4.487,4.469,4.469,4.487,4.487,4.487,4.505,4.505,4.505,4.505,4.487,4.505,4.505,4.505,4.505,4.505,4.523,4.523,4.523,4.542,4.561,4.579,4.579,4.598,4.618,4.618,4.637,4.637,4.637,4.637,4.637,4.618,4.618,4.598,4.598,4.598,4.598,4.579,4.579,4.579,4.579,4.579,4.579,4.579,4.579,4.598,4.598,4.598,4.618,4.618,4.618,4.618,4.618,4.618,4.598,4.598,4.579,4.579,4.561,4.542,4.523,4.523,4.505,4.505,4.487,4.487,4.469,4.451,4.433,4.415,4.415,4.398,4.38,4.346,4.329,4.312,4.279,4.262,4.246,4.214,4.198,4.182,4.166,4.151,4.12,4.104,4.089,4.074,4.059,4.059,4.045,4.03,4.015,4.015,4.001,3.986,3.972,3.958,3.944,3.93,3.916,3.902,3.875,3.861,3.835,3.821,3.795,3.769,3.744,3.731,3.706,3.694,3.682,3.657,3.633,3.622,3.598,3.575,3.563,3.541,3.518,3.496,3.485,3.463,3.442,3.42,3.41,3.389,3.379,3.358,3.348,3.338,3.328,3.318,3.308,3.298,3.288,3.288,3.279,3.279,3.269,3.259,3.25,3.24,3.231,3.212,3.194,3.175,3.157,3.131,3.113,3.096,3.07,3.061,3.045,3.036,3.02,3.011,3.003,2.995,2.979,2.971,2.963,2.947,2.932,2.924,2.909,2.901,2.886,2.878,2.864,2.849,2.842,2.834,2.827,2.82,2.82,2.813,2.799,2.791,2.784,2.777,2.771,2.764,2.757,2.743,2.736,2.723,2.716,2.71,2.703,2.696,2.69,2.683,2.677,2.664,2.658,2.658,2.645,2.639,2.632,2.626,2.62,2.62,2.614,2.608,2.601,2.595,2.589,2.583,2.577,2.571,2.565,2.559,2.553,2.548,2.542,2.53,2.524,2.513,2.502,2.49,2.479,2.468,2.457,2.446,2.436,2.43,2.42,2.414,2.409,2.404,2.399,2.394,2.388,2.383,2.378,2.373,2.363,2.358,2.348,2.343,2.338,2.328,2.318,2.314,2.304,2.299,2.29,2.285,2.28,2.276,2.271,2.266,2.262,2.257,2.252,2.248,2.243,2.239,2.239,2.234,2.23
4.089,4.104,4.104,4.104,4.104,4.104,4.104,4.104,4.104,4.104,4.104,4.104,4.104,4.12,4.12,4.12,4.135,4.151,4.151,4.166,4.166,4.198,4.198,4.23,4.23,4.23,4.23,4.214,4.214,4.214,4.182,4.151,4.151,4.12,4.135,4.135,4.135,4.135,4.151,4.151,4.166,4.166,4.182,4.198,4.214,4.214,4.23,4.23,4.246,4.262,4.279,4.279,4.279,4.295,4.312,4.312,4.312,4.329,4.329,4.346,4.346,4.346,4.363,4.363,4.346,4.346,4.346,4.346,4.329,4.312,4.295,4.295,4.295,4.295,4.295,4.279,4.279,4.279,4.295,4.312,4.312,4.312,4.329,4.329,4.346,4.346,4.346,4.363,4.346,4.346,4.346,4.363,4.363,4.346,4.346,4.346,4.346,4.346,4.329,4.312,4.295,4.279,4.262,4.246,4.23,4.214,4.198,4.198,4.198,4.198,4.198,4.198,4.214,4.23,4.246,4.246,4.262,4.279,4.312,4.312,4.346,4.363,4.38,4.398,4.415,4.451,4.451,4.469,4.487,4.505,4.523,4.542,4.542,4.561,4.542,4.561,4.561,4.542,4.542,4.523,4.523,4.523,4.505,4.505,4.505,4.487,4.487,4.487,4.487,4.487,4.487,4.487,4.487,0,0,0,4.469,4.469,4.469,4.451,4.451,4.451,0,0,0,4.398,4.398,4.38,4.363,4.346,4.346,4.329,4.329,4.329,4.312,4.312,4.312,4.329,4.329,4.346,4.363,4.38,4.398,4.415,4.433,4.469,4.487,4.505,4.523,4.542,4.542,4.542,4.542,4.542,4.523,4.505,4.505,4.487,4.469,4.451,4.433,4.433,4.415,4.415,4.398,4.398,4.398,4.38,4.38,4.38,4.38,4.38,4.38,4.398,4.398,4.398,4.415,4.433,4.433,4.451,4.469,4.469,4.487,4.487,4.505,4.505,4.523,4.523,4.523,4.505,4.505,4.505,4.505,4.505,4.487,4.487,4.487,4.469,4.469,4.469,4.487,4.487,4.487,4.487,4.487,4.487,4.487,4.487,4.505,4.505,4.505,4.505,4.487,4.487,4.505,4.505,4.505,4.505,4.505,4.505,4.505,4.523,4.523,4.523,4.523,4.542,4.542,4.542,4.542,4.542,4.542,4.542,4.542,4.561,4.579,4.579,4.598,4.618,4.618,4.637,4.637,4.656,4.656,4.676,4.676,4.676,4.676,4.656,4.637,4.637,4.637,4.618,4.618,4.618,4.618,4.598,4.598,4.598,4.598,4.598,4.598,4.618,4.618,4.618,4.637,4.637,4.637,4.637,4.637,4.637,4.637,4.618,4.598,4.598,4.598,4.579,4.561,4.542,4.542,4.523,4.523,4.505,4.487,4.469,4.451,4.433,4.433,4.415,4.398,4.363,4.346,4.329,4.295,4.279,4.262,4.23,4.214,4.198,4.166,4.151,4.135,4.12,4.104,4.089,4.074,4.059,4.059,4.045,4.03,4.015,4.001,4.001,3.986,3.958,3.944,3.944,3.93,3.916,3.888,3.875,3.861,3.835,3.821,3.795,3.769,3.744,3.731,3.706,3.694,3.67,3.657,3.633,3.61,3.598,3.575,3.552,3.541,3.518,3.496,3.474,3.452,3.442,3.42,3.399,3.389,3.379,3.358,3.348,3.338,3.328,3.318,3.308,3.298,3.298,3.288,3.279,3.279,3.269,3.259,3.25,3.24,3.231,3.212,3.194,3.175,3.148,3.131,3.104,3.087,3.07,3.053,3.045,3.036,3.02,3.011,3.003,2.995,2.979,2.971,2.955,2.947,2.932,2.916,2.909,2.901,2.886,2.871,2.864,2.849,2.842,2.834,2.827,2.82,2.813,2.813,2.799,2.791,2.784,2.777,2.771,2.764,2.757,2.743,2.736,2.73,2.716,2.71,2.703,2.696,2.69,2.683,2.677,2.67,2.664,2.658,2.651,2.639,2.632,2.626,2.626,2.62,2.614,2.608,2.601,2.595,2.589,2.583,2.577,2.571,2.565,2.559,2.553,2.548,2.542,2.53,2.524,2.513,2.502,2.49,2.479,2.468,2.452,2.441,2.43,2.425,2.414,2.409,2.404,2.399,2.394,2.388,2.383,2.378,2.373,2.368,2.363,2.353,2.348,2.343,2.333,2.328,2.318,2.314,2.304,2.299,2.294,2.29,2.285,2.276,2.271,2.266,2.262,2.257,2.252,2.248,2.243,2.239,2.239,2.234,2.23
4.151,4.151,4.151,4.151,4.151,4.151,4.151,4.135,4.135,4.151,4.135,4.135,4.135,4.135,4.12,4.135,4.135,4.135,4.151,4.151,4.166,4.182,4.198,4.214,4.214,4.23,4.214,4.23,4.23,4.214,4.198,4.182,4.166,4.151,4.151,4.151,4.151,4.151,4.166,4.166,4.182,4.198,4.214,4.214,4.23,4.246,4.246,4.262,4.279,4.295,4.295,4.312,4.312,4.329,4.346,4.346,4.346,4.363,4.363,4.38,4.38,4.38,4.38,4.38,4.38,4.38,4.363,4.346,4.346,4.329,4.312,4.312,4.295,4.295,4.295,4.295,4.295,4.295,4.312,4.312,4.329,4.329,4.346,4.346,4.363,4.363,4.363,4.363,4.363,4.363,4.363,4.363,4.363,4.363,4.346,4.346,4.363,4.346,4.346,4.312,4.312,4.279,4.279,4.262,4.246,4.23,4.214,4.214,4.214,4.214,4.214,4.214,4.23,4.23,4.246,4.262,4.279,4.295,4.329,4.329,4.363,4.38,4.398,4.415,4.433,4.451,4.469,4.487,4.505,4.523,4.523,4.542,4.561,4.561,4.561,4.561,4.561,4.561,4.542,4.542,4.523,4.523,4.523,4.505,4.505,4.505,4.505,4.487,4.487,4.487,4.487,4.487,4.487,4.469,4.469,4.469,4.469,4.469,4.469,4.451,4.451,4.451,4.451,4.451,4.433,4.433,4.415,4.398,4.38,4.38,4.363,4.346,4.346,4.346,4.329,4.329,4.329,4.329,4.346,4.346,4.363,4.38,4.398,4.415,4.451,4.487,4.505,4.523,4.542,4.561,4.579,4.579,4.579,4.579,4.561,4.542,4.542,4.523,4.505,4.487,4.469,4.451,4.451,4.433,4.433,4.415,4.415,4.398,4.415,4.398,4.398,4.398,4.415,4.415,4.433,4.433,4.451,4.451,4.469,4.487,4.487,4.505,4.505,4.523,4.523,4.542,4.542,4.542,4.542,4.542,4.542,4.523,4.523,4.505,4.505,4.505,4.505,4.487,4.487,4.487,4.487,4.505,4.487,4.487,4.505,4.505,4.505,4.505,4.523,4.523,4.523,4.523,4.523,4.542,4.542,4.542,4.542,4.542,4.542,4.542,4.542,4.561,4.561,4.579,4.579,4.579,4.579,4.579,4.579,4.579,4.598,4.598,4.598,4.618,4.618,4.637,4.637,4.656,4.656,4.676,4.676,4.676,4.676,4.696,4.696,4.676,4.676,4.676,4.676,4.656,4.656,4.656,4.637,4.637,4.637,4.637,4.637,4.637,4.637,4.637,4.637,4.637,4.637,4.637,4.656,4.656,4.656,4.656,4.656,4.656,4.656,4.637,4.618,4.618,4.598,4.579,4.561,4.561,4.542,4.542,4.523,4.505,4.487,4.487,4.469,4.451,4.433,4.415,4.398,4.363,4.346,4.329,4.295,4.279,4.262,4.23,4.214,4.198,4.166,4.151,4.135,4.12,4.104,4.089,4.074,4.059,4.059,4.045,4.03,4.015,4.001,3.986,3.972,3.958,3.944,3.93,3.916,3.902,3.888,3.875,3.848,3.835,3.808,3.782,3.769,3.744,3.719,3.706,3.682,3.67,3.645,3.633,3.61,3.586,3.575,3.552,3.529,3.507,3.485,3.463,3.452,3.431,3.42,3.399,3.389,3.368,3.358,3.348,3.338,3.328,3.318,3.308,3.298,3.298,3.288,3.288,3.279,3.269,3.259,3.25,3.24,3.231,3.212,3.194,3.166,3.148,3.131,3.104,3.087,3.07,3.053,3.045,3.036,3.02,3.011,3.003,2.995,2.979,2.971,2.955,2.947,2.932,2.916,2.909,2.901,2.886,2.871,2.864,2.849,2.842,2.834,2.827,2.82,2.813,2.806,2.799,2.799,2.784,2.777,2.771,2.764,2.757,2.75,2.743,2.73,2.723,2.716,2.703,2.696,2.69,2.683,2.677,2.67,2.664,2.658,2.651,2.639,2.632,2.626,2.62,2.62,2.614,2.608,2.601,2.595,2.589,2.583,2.577,2.571,2.565,2.559,2.553,2.548,2.542,2.53,2.524,2.513,2.502,2.49,2.474,2.468,2.452,2.441,2.43,2.42,2.414,2.409,2.404,2.399,2.388,2.383,2.383,2.378,2.368,2.363,2.363,2.353,2.348,2.338,2.333,2.328,2.323,2.314,2.309,2.299,2.294,2.29,2.285,2.276,2.271,2.266,2.262,2.257,2.252,2.248,2.243,2.239,2.239,2.234,2.23
4.198,4.182,4.198,4.198,4.198,4.182,4.198,4.182,4.182,4.182,4.166,4.166,4.166,4.151,4.151,4.151,4.151,4.151,4.151,4.151,4.166,4.166,4.198,4.198,4.214,4.23,4.23,4.23,4.23,4.23,4.214,4.198,4.182,4.166,4.166,4.166,4.182,4.166,4.182,4.182,4.198,4.214,4.23,4.23,4.246,4.262,4.262,4.279,4.295,4.312,4.312,4.329,4.346,4.346,4.363,4.38,4.38,4.38,4.38,4.38,4.398,4.398,4.398,4.398,4.38,4.38,4.363,4.363,4.346,4.329,4.312,4.312,4.312,4.312,4.312,4.312,4.312,4.312,4.312,4.329,4.329,4.346,4.346,4.346,4.363,4.363,4.38,4.363,4.363,4.363,4.363,4.363,4.363,4.363,4.363,4.363,4.363,4.363,4.346,4.329,4.312,4.312,4.295,4.279,4.262,4.246,4.246,4.246,4.246,4.246,4.246,4.246,4.246,4.262,4.279,4.295,4.312,4.329,4.346,4.363,4.38,4.398,4.415,4.433,4.451,4.469,4.487,4.505,4.523,4.542,4.542,4.561,4.561,4.579,4.579,4.561,4.561,4.561,4.561,4.561,4.542,4.542,4.523,4.523,4.523,4.523,4.505,4.505,4.505,4.487,4.487,4.487,4.487,4.487,4.487,4.487,4.487,4.469,4.469,4.469,4.469,4.487,4.487,4.469,4.451,4.451,4.433,4.433,4.415,4.398,4.38,4.363,4.363,4.363,4.346,4.346,4.346,4.346,4.346,4.363,4.363,4.38,4.398,4.433,4.451,4.487,4.523,4.542,4.561,4.579,4.598,4.618,4.618,4.598,4.598,4.598,4.579,4.561,4.542,4.523,4.505,4.505,4.487,4.469,4.469,4.451,4.451,4.433,4.433,4.433,4.433,4.433,4.433,4.451,4.451,4.451,4.469,4.487,4.487,4.505,4.523,4.523,4.542,4.542,4.542,4.561,4.561,4.561,4.561,4.561,4.542,4.542,4.523,4.523,4.523,4.505,4.505,4.505,4.505,4.505,4.505,4.505,4.505,4.505,4.505,4.505,4.523,4.523,4.542,4.542,4.542,4.561,4.561,4.561,4.579,4.579,4.579,4.579,4.598,4.598,4.598,4.598,4.598,4.618,4.618,4.618,4.618,4.618,4.618,4.637,4.637,4.637,4.637,4.656,4.656,4.676,4.676,4.676,4.696,4.696,4.696,4.696,4.716,4.716,4.716,4.716,4.716,4.716,4.696,4.696,4.696,4.676,4.676,4.676,4.676,4.676,4.676,4.676,4.676,4.676,4.656,4.656,4.656,4.676,4.676,4.676,4.676,4.676,4.676,4.676,4.656,4.656,4.637,4.637,4.618,4.598,4.579,4.579,4.561,4.542,4.542,4.523,4.505,4.487,4.469,4.451,4.433,4.415,4.398,4.38,4.363,4.329,4.312,4.279,4.262,4.23,4.214,4.182,4.166,4.151,4.135,4.12,4.104,4.089,4.074,4.059,4.059,4.045,4.03,4.015,4.001,3.986,3.972,3.958,3.944,3.93,3.916,3.902,3.888,3.861,3.848,3.821,3.795,3.782,3.757,3.744,3.719,3.694,3.682,3.67,3.645,3.622,3.61,3.586,3.563,3.541,3.518,3.496,3.474,3.463,3.442,3.42,3.41,3.399,3.389,3.368,3.358,3.348,3.338,3.328,3.318,3.308,3.308,3.298,3.298,3.288,3.279,3.269,3.259,3.25,3.24,3.231,3.212,3.185,3.166,3.148,3.122,3.104,3.087,3.07,3.053,3.045,3.036,3.02,3.011,3.003,2.995,2.979,2.971,2.955,2.947,2.932,2.916,2.909,2.901,2.886,2.871,2.864,2.849,2.842,2.834,2.827,2.82,2.813,2.806,2.799,2.791,2.784,2.777,2.771,2.764,2.757,2.75,2.743,2.736,2.723,2.716,2.71,2.703,2.69,2.683,2.677,2.67,2.664,2.658,2.645,2.639,2.632,2.626,2.62,2.614,2.608,2.601,2.601,2.589,2.583,2.577,2.577,2.571,2.565,2.559,2.553,2.548,2.536,2.53,2.524,2.513,2.502,2.49,2.479,2.463,2.452,2.441,2.43,2.42,2.414,2.404,2.399,2.394,2.388,2.383,2.378,2.373,2.368,2.363,2.358,2.353,2.343,2.338,2.333,2.328,2.318,2.314,2.309,2.304,2.294,2.29,2.285,2.276,2.271,2.266,2.262,2.257,2.252,2.248,2.243,2.243,2.239,2.234,2.23
4.23,4.23,4.246,4.23,4.23,4.23,4.23,4.23,4.214,4.214,4.214,4.198,4.182,4.166,4.166,4.166,4.151,4.151,4.151,4.151,4.151,4.182,4.182,4.198,4.214,4.214,4.23,4.23,4.23,4.246,4.246,4.214,4.214,4.214,4.198,4.198,4.214,4.198,4.198,4.214,4.214,4.23,4.246,4.246,4.262,4.279,4.279,4.295,4.312,4.329,4.329,4.346,4.346,4.363,4.38,4.38,4.38,4.398,4.398,4.415,4.415,4.415,4.415,4.398,4.398,4.38,4.38,4.38,4.363,4.346,4.329,4.329,4.329,4.329,4.329,4.329,4.329,4.329,4.329,4.346,4.346,4.346,4.363,4.363,4.363,4.38,4.38,4.38,4.363,4.363,4.363,4.363,4.363,4.363,4.363,4.38,4.38,4.38,4.363,4.363,4.329,4.329,4.312,4.312,4.279,4.279,4.279,4.279,4.279,4.279,4.279,4.279,4.279,4.295,4.312,4.312,4.329,4.346,4.363,4.38,4.415,4.415,4.433,4.451,4.469,4.487,4.505,4.523,4.542,4.561,4.561,4.579,4.579,4.579,4.579,4.579,4.579,4.579,4.579,4.561,4.561,4.561,4.542,4.523,4.523,4.523,4.523,4.523,4.523,4.505,4.505,4.505,4.505,4.505,4.505,4.487,4.487,4.487,4.487,4.487,4.505,4.505,4.505,4.487,4.469,4.469,4.451,4.451,4.433,4.415,4.415,4.398,4.38,4.38,4.38,4.363,4.363,4.363,4.38,4.38,4.398,4.398,4.415,4.451,4.469,4.505,4.523,4.561,4.598,4.618,4.618,4.637,4.637,4.637,4.637,4.618,4.598,4.598,4.579,4.561,4.542,4.542,4.523,4.505,4.487,4.487,4.487,4.469,4.469,4.469,4.451,4.469,4.469,4.469,4.487,4.487,4.505,4.523,4.523,4.523,4.542,4.561,4.561,4.561,4.579,4.579,4.579,4.579,4.579,4.579,4.561,4.561,4.561,4.542,4.523,4.523,4.523,4.505,4.505,4.505,4.523,4.523,4.523,4.523,4.542,4.542,4.542,4.561,4.579,4.579,4.579,4.598,4.618,4.618,4.618,4.618,4.637,4.637,4.656,4.656,4.656,4.656,4.656,4.676,4.656,4.656,4.656,4.656,4.676,4.676,4.676,4.676,4.676,4.696,4.696,4.696,4.716,4.716,4.716,4.736,4.736,4.736,4.736,4.736,4.736,4.736,4.736,4.736,4.736,4.736,4.716,4.716,4.716,4.716,4.716,4.716,4.716,4.716,4.716,4.696,4.696,4.696,4.696,4.696,4.696,4.696,4.696,4.696,4.696,4.696,4.676,4.676,4.656,4.637,4.618,4.618,4.598,4.579,4.579,4.561,4.542,4.523,4.505,4.487,4.469,4.469,4.433,4.415,4.398,4.38,4.363,4.329,4.312,4.279,4.262,4.23,4.214,4.182,4.166,4.151,4.135,4.12,4.104,4.089,4.074,4.074,4.059,4.045,4.03,4.015,4.001,3.986,3.972,3.958,3.944,3.93,3.916,3.888,3.875,3.848,3.835,3.808,3.782,3.769,3.757,3.731,3.706,3.694,3.682,3.657,3.645,3.622,3.61,3.586,3.563,3.541,3.518,3.496,3.474,3.452,3.431,3.42,3.41,3.399,3.379,3.368,3.368,3.348,3.338,3.328,3.318,3.318,3.308,3.308,3.298,3.288,3.279,3.269,3.269,3.259,3.24,3.231,3.212,3.185,3.166,3.148,3.122,3.104,3.078,3.061,3.053,3.045,3.036,3.02,3.011,3.003,2.995,2.979,2.971,2.963,2.947,2.932,2.924,2.909,2.901,2.886,2.878,2.864,2.849,2.842,2.834,2.827,2.82,2.813,2.806,2.799,2.791,2.784,2.777,2.771,2.764,2.757,2.75,2.743,2.736,2.73,2.716,2.71,2.703,2.69,2.683,2.677,2.67,2.658,2.651,2.645,2.632,2.626,2.62,2.614,2.608,2.601,2.601,2.595,2.589,2.583,2.577,2.571,2.565,2.559,2.553,2.548,2.542,2.536,2.53,2.519,2.507,2.496,2.485,2.474,2.463,2.452,2.441,2.43,2.42,2.409,2.404,2.399,2.394,2.388,2.383,2.378,2.373,2.368,2.363,2.358,2.353,2.343,2.338,2.333,2.328,2.318,2.314,2.309,2.304,2.299,2.29,2.285,2.28,2.276,2.266,2.262,2.257,2.252,2.248,2.243,2.243,2.239,2.234,2.23
4.279,4.279,4.279,4.295,4.279,4.279,4.279,4.262,4.262,4.262,4.246,4.23,4.23,4.198,4.198,4.182,4.182,4.166,4.166,4.166,4.166,4.182,4.198,4.198,4.214,4.23,4.23,4.246,4.246,4.246,4.262,4.262,4.246,4.23,4.23,4.23,4.23,4.23,4.23,4.23,4.246,4.262,4.262,4.262,4.279,4.295,4.312,4.312,4.329,4.329,4.346,4.346,4.363,4.363,4.38,4.38,4.398,4.398,4.398,4.415,4.415,4.415,4.415,4.398,4.398,4.398,4.38,4.38,4.38,4.346,4.346,4.346,4.363,4.363,4.346,4.346,4.346,4.346,4.363,4.363,4.363,4.363,4.363,4.38,4.398,4.398,4.38,4.38,4.38,4.38,4.38,4.38,4.38,4.38,4.38,4.398,4.398,4.398,4.398,4.38,4.363,4.363,4.346,4.346,4.329,4.329,4.312,4.312,4.312,4.312,4.312,4.312,4.329,4.346,4.346,4.346,4.363,4.38,4.398,4.415,4.433,4.451,4.469,4.487,4.487,4.505,4.523,4.523,4.542,4.561,4.579,4.579,4.598,4.598,4.598,4.598,4.598,4.598,4.579,4.579,4.579,4.561,4.561,4.542,4.542,4.542,4.542,4.542,4.542,4.523,4.523,4.523,4.523,4.523,4.523,4.505,4.505,4.505,4.505,4.523,4.523,4.523,4.523,4.505,4.505,4.505,4.487,4.487,4.469,4.451,4.433,4.433,4.433,4.415,4.415,4.398,4.398,4.398,4.398,4.415,4.415,4.433,4.433,4.469,4.487,4.523,4.561,4.579,4.598,4.637,4.656,4.656,4.676,4.676,4.656,4.656,4.637,4.637,4.598,4.598,4.579,4.579,4.561,4.542,4.523,4.523,4.523,4.505,4.505,4.505,4.505,4.505,4.505,4.505,4.505,4.523,4.523,4.542,4.542,4.561,4.561,4.579,4.579,4.598,4.598,4.598,4.598,4.598,4.598,4.598,4.598,4.579,4.561,4.561,4.542,4.542,4.523,4.523,4.523,4.523,4.523,4.523,4.542,4.542,4.561,4.561,4.579,4.598,4.598,4.618,4.618,4.637,4.637,4.656,4.656,4.676,4.676,4.676,4.696,4.696,4.696,4.696,4.696,4.716,4.696,4.696,4.716,4.716,4.716,4.716,4.716,4.716,4.716,4.736,4.736,4.756,4.756,4.756,4.756,4.756,4.756,4.756,4.756,4.777,4.777,4.777,4.777,4.777,4.756,4.756,4.756,4.756,4.756,4.756,4.756,4.756,4.756,4.756,4.736,4.736,4.716,4.716,4.716,4.716,4.716,4.716,4.716,4.716,4.716,4.716,4.696,4.676,4.676,4.656,4.637,4.618,4.618,4.598,4.579,4.561,4.542,4.523,4.505,4.505,4.487,4.469,4.433,4.415,4.398,4.38,4.363,4.329,4.312,4.279,4.262,4.23,4.214,4.182,4.166,4.151,4.135,4.12,4.104,4.089,4.074,4.074,4.059,4.045,4.03,4.015,4.001,3.986,3.972,3.958,3.944,3.916,3.902,3.888,3.861,3.848,3.821,3.795,3.782,3.757,3.744,3.731,3.706,3.694,3.67,3.657,3.645,3.622,3.598,3.586,3.552,3.529,3.507,3.496,3.474,3.452,3.431,3.42,3.399,3.389,3.379,3.368,3.368,3.358,3.348,3.338,3.328,3.318,3.318,3.308,3.298,3.288,3.279,3.279,3.269,3.259,3.24,3.231,3.212,3.185,3.166,3.148,3.122,3.104,3.078,3.061,3.053,3.045,3.028,3.02,3.011,3.003,2.995,2.979,2.971,2.963,2.947,2.94,2.924,2.909,2.901,2.894,2.878,2.864,2.849,2.842,2.834,2.827,2.82,2.813,2.806,2.799,2.791,2.784,2.777,2.771,2.764,2.757,2.75,2.743,2.736,2.73,2.716,2.71,2.703,2.69,2.683,2.67,2.664,2.658,2.651,2.639,2.632,2.626,2.62,2.614,2.608,2.601,2.595,2.589,2.583,2.577,2.571,2.565,2.559,2.553,2.553,2.548,2.542,2.536,2.524,2.519,2.507,2.496,2.485,2.474,2.468,2.452,2.441,2.436,2.425,2.414,2.404,2.399,2.394,2.388,2.383,2.378,2.373,2.368,2.363,2.358,2.353,2.343,2.338,2.333,2.328,2.318,2.314,2.309,2.304,2.299,2.294,2.285,2.28,2.276,2.271,2.266,2.262,2.252,2.248,2.248,2.243,2.239,2.234,2.23
4.329,4.329,4.329,4.329,4.329,4.329,4.312,4.312,4.295,4.295,4.279,4.262,4.246,4.246,4.23,4.214,4.214,4.198,4.198,4.182,4.182,4.198,4.214,4.23,4.23,4.246,4.262,4.262,4.279,4.279,4.279,4.279,4.279,4.262,4.262,4.262,4.279,4.262,4.262,4.262,4.279,4.279,4.295,4.295,4.312,4.312,4.312,4.329,4.346,4.346,4.346,4.363,4.363,4.38,4.38,4.398,4.398,4.398,4.398,4.415,4.415,4.415,4.415,4.415,4.415,4.398,4.398,4.398,4.398,4.38,4.38,4.38,4.38,4.38,4.38,4.38,4.38,4.38,4.398,4.398,4.398,4.398,4.398,4.398,4.415,4.415,4.415,4.415,4.415,4.415,4.415,4.415,4.415,4.415,4.415,4.415,4.433,4.433,4.415,4.415,4.398,4.398,4.398,4.38,4.363,4.363,4.363,4.363,4.363,4.363,4.363,4.363,4.363,4.38,4.398,4.398,4.415,4.415,4.433,4.451,4.469,4.469,4.487,4.505,4.523,4.523,4.542,4.561,4.579,4.579,4.598,4.598,4.618,4.618,4.618,4.618,4.618,4.618,4.618,4.598,4.598,4.579,4.579,4.561,4.561,4.561,4.561,4.561,4.561,4.542,4.542,4.542,4.542,4.542,4.523,4.523,4.523,4.523,4.523,4.542,4.542,4.542,4.542,4.542,4.523,4.523,4.523,4.523,4.505,4.487,4.487,4.469,4.469,4.469,4.451,4.451,4.433,4.433,4.433,4.433,4.451,4.451,4.469,4.487,4.523,4.542,4.579,4.618,4.637,4.656,4.656,4.676,4.676,4.676,4.676,4.676,4.656,4.656,4.637,4.618,4.618,4.598,4.598,4.579,4.561,4.561,4.542,4.542,4.542,4.542,4.523,4.523,4.542,4.561,4.561,4.561,4.561,4.579,4.579,4.579,4.598,4.598,4.598,4.598,4.618,4.618,4.618,4.618,4.618,4.598,4.598,4.598,4.579,4.561,4.561,4.561,4.542,4.523,4.523,4.523,4.542,4.561,4.561,4.561,4.579,4.598,4.598,4.618,4.637,4.637,4.656,4.676,4.676,4.696,4.716,4.696,4.716,4.716,4.736,4.736,4.736,4.756,4.756,4.736,4.736,4.756,4.756,4.756,4.736,4.736,4.756,4.756,4.756,4.777,4.777,4.777,4.777,4.797,4.797,4.797,4.797,4.797,4.797,4.797,4.797,4.797,4.797,4.797,4.797,4.797,4.797,4.797,4.797,4.797,4.797,4.797,4.777,4.777,4.777,4.777,4.756,4.756,4.736,4.736,4.736,4.736,4.736,4.736,4.736,4.716,4.716,4.696,4.696,4.676,4.656,4.637,4.637,4.618,4.598,4.579,4.561,4.542,4.523,4.505,4.487,4.469,4.433,4.415,4.398,4.38,4.363,4.329,4.312,4.279,4.262,4.23,4.214,4.182,4.166,4.151,4.135,4.12,4.104,4.089,4.074,4.074,4.059,4.045,4.03,4.015,4.001,3.986,3.972,3.944,3.93,3.916,3.888,3.875,3.848,3.835,3.808,3.795,3.769,3.757,3.744,3.719,3.706,3.694,3.67,3.657,3.633,3.622,3.598,3.586,3.563,3.529,3.507,3.496,3.474,3.452,3.431,3.42,3.399,3.389,3.379,3.368,3.368,3.358,3.348,3.338,3.328,3.318,3.318,3.308,3.298,3.288,3.288,3.279,3.269,3.259,3.24,3.231,3.203,3.185,3.166,3.139,3.122,3.096,3.078,3.061,3.053,3.036,3.028,3.02,3.011,3.003,2.995,2.987,2.971,2.963,2.955,2.94,2.924,2.916,2.901,2.894,2.878,2.871,2.856,2.842,2.834,2.827,2.82,2.813,2.806,2.799,2.791,2.784,2.777,2.771,2.764,2.757,2.75,2.743,2.736,2.73,2.723,2.71,2.703,2.69,2.677,2.67,2.658,2.651,2.645,2.632,2.626,2.62,2.614,2.608,2.601,2.595,2.589,2.583,2.583,2.577,2.565,2.565,2.559,2.553,2.548,2.542,2.536,2.53,2.524,2.519,2.507,2.502,2.49,2.479,2.468,2.457,2.446,2.436,2.425,2.414,2.409,2.404,2.394,2.388,2.383,2.378,2.373,2.373,2.363,2.358,2.353,2.348,2.343,2.333,2.328,2.323,2.314,2.309,2.304,2.299,2.294,2.29,2.285,2.28,2.271,2.266,2.262,2.257,2.252,2.248,2.243,2.239,2.234,2.234
4.38,4.38,4.38,4.38,4.38,4.363,4.363,4.346,4.346,4.329,4.312,4.312,4.279,4.262,4.262,4.246,4.246,4.23,4.214,4.214,4.214,4.23,4.23,4.246,4.246,4.262,4.279,4.279,4.295,4.312,4.312,4.312,4.312,4.295,4.295,4.312,4.295,4.295,4.295,4.295,4.295,4.312,4.312,4.312,4.329,4.329,4.346,4.346,4.346,4.363,4.363,4.363,4.363,4.38,4.398,4.398,4.398,4.415,4.415,4.415,4.433,4.415,4.415,4.415,4.415,4.415,4.415,4.415,4.415,4.415,4.415,4.415,4.433,4.433,4.433,4.433,4.433,4.433,4.451,4.451,4.451,4.451,4.451,4.451,4.451,4.451,4.451,4.451,4.451,4.451,4.451,4.451,4.451,4.451,4.451,4.451,4.469,4.451,4.451,4.451,4.433,4.433,4.433,4.415,4.415,4.415,4.398,4.415,4.415,4.415,4.415,4.415,4.415,4.433,4.433,4.433,4.451,4.451,4.469,4.487,4.487,4.505,4.505,4.523,4.523,4.542,4.561,4.579,4.598,4.598,4.618,4.637,4.637,4.637,4.637,4.637,4.637,4.618,4.618,4.618,4.618,4.598,4.598,4.579,4.579,4.579,4.579,4.579,4.579,4.579,4.561,4.561,4.561,4.561,4.561,4.542,4.542,4.542,4.542,4.561,4.561,4.561,4.561,4.561,4.561,4.561,4.561,4.561,4.542,4.542,4.523,4.523,4.505,4.505,4.505,4.487,4.487,4.469,4.469,4.469,4.487,4.487,4.505,4.523,4.542,4.579,4.598,4.637,4.656,4.676,4.676,4.696,4.696,4.696,4.696,4.696,4.696,4.676,4.656,4.637,4.637,4.637,4.618,4.618,4.598,4.598,4.598,4.598,4.579,4.579,4.579,4.579,4.579,4.579,4.598,4.598,4.598,4.598,4.598,4.618,4.618,4.618,4.618,4.618,4.637,4.637,4.637,4.637,4.637,4.618,4.618,4.598,4.598,4.579,4.579,4.561,4.561,4.561,4.561,4.561,4.561,4.579,4.579,4.579,4.598,4.618,4.618,4.637,4.656,4.676,4.696,4.696,4.716,4.716,4.736,4.736,4.756,4.756,4.756,4.777,4.777,4.777,4.777,4.777,4.797,4.777,4.777,4.777,4.777,4.797,4.797,4.797,4.797,4.818,4.818,4.818,4.818,4.818,4.818,4.818,4.818,4.818,4.818,4.818,4.839,4.818,4.818,4.839,4.839,4.818,4.818,4.839,4.839,4.818,4.818,4.818,4.818,4.818,4.818,4.797,4.797,4.777,4.777,4.756,4.756,4.756,4.756,4.756,4.736,4.736,4.736,4.716,4.696,4.696,4.676,4.656,4.637,4.618,4.598,4.579,4.561,4.542,4.523,4.505,4.505,4.469,4.451,4.415,4.398,4.38,4.363,4.329,4.312,4.279,4.262,4.23,4.214,4.182,4.166,4.151,4.135,4.12,4.104,4.089,4.074,4.059,4.059,4.045,4.03,4.015,4.001,3.972,3.958,3.944,3.93,3.902,3.888,3.861,3.848,3.821,3.808,3.782,3.769,3.757,3.731,3.719,3.706,3.682,3.67,3.657,3.633,3.622,3.598,3.586,3.563,3.529,3.507,3.496,3.474,3.452,3.431,3.42,3.399,3.389,3.379,3.368,3.358,3.358,3.348,3.338,3.328,3.318,3.318,3.308,3.298,3.288,3.288,3.279,3.269,3.25,3.24,3.222,3.203,3.185,3.157,3.139,3.113,3.096,3.078,3.061,3.045,3.036,3.028,3.02,3.011,3.003,2.995,2.987,2.979,2.963,2.955,2.947,2.932,2.916,2.909,2.894,2.878,2.871,2.856,2.849,2.834,2.827,2.82,2.813,2.806,2.799,2.791,2.784,2.777,2.771,2.764,2.757,2.75,2.743,2.73,2.723,2.716,2.71,2.696,2.683,2.677,2.664,2.658,2.651,2.639,2.626,2.62,2.614,2.608,2.601,2.595,2.589,2.583,2.577,2.577,2.571,2.565,2.559,2.553,2.548,2.548,2.542,2.536,2.53,2.524,2.513,2.507,2.502,2.49,2.479,2.474,2.457,2.446,2.436,2.43,2.42,2.409,2.404,2.399,2.394,2.388,2.383,2.378,2.373,2.368,2.363,2.353,2.348,2.343,2.338,2.333,2.323,2.318,2.314,2.304,2.299,2.294,2.29,2.285,2.28,2.276,2.266,2.262,2.257,2.252,2.248,2.243,2.239,2.234,2.234
4.433,4.433,4.415,4.415,4.415,4.398,4.398,4.38,4.38,4.363,4.346,4.329,4.329,4.312,4.295,4.279,4.262,4.262,4.262,4.246,4.246,4.246,4.262,4.279,4.279,4.279,4.295,4.295,4.312,4.329,4.329,4.329,4.329,4.329,4.329,4.329,4.329,4.329,4.329,4.329,4.329,4.329,4.346,4.346,4.346,4.346,4.346,4.363,4.363,4.363,4.363,4.38,4.38,4.398,4.398,4.415,4.415,4.415,4.415,4.415,4.433,4.433,4.433,4.433,4.433,4.433,4.433,4.433,4.433,4.433,4.433,4.451,4.469,4.469,4.469,4.469,4.487,4.487,4.505,4.505,4.505,4.505,4.505,4.505,4.505,4.505,4.487,4.487,4.487,4.487,4.487,4.487,4.487,4.487,4.487,4.487,4.487,4.487,4.487,4.487,4.487,4.469,4.469,4.469,4.451,4.451,4.451,4.451,4.451,4.469,4.469,4.451,4.469,4.469,4.469,4.487,4.487,4.487,4.505,4.505,4.523,4.523,4.542,4.542,4.561,4.579,4.579,4.598,4.618,4.637,4.637,4.656,4.656,4.676,4.676,4.656,4.656,4.656,4.637,4.637,4.637,4.618,4.618,4.618,4.618,4.598,4.598,4.598,4.598,4.598,4.598,4.579,4.579,4.579,4.579,4.579,4.579,4.579,4.579,4.579,4.579,4.579,4.598,4.598,4.598,4.598,4.598,4.598,4.579,4.579,4.561,4.561,4.561,4.561,4.542,4.542,4.523,4.523,4.523,4.523,4.523,4.523,4.542,4.561,4.579,4.598,4.618,4.656,4.676,4.676,4.696,4.696,4.696,4.716,4.696,4.696,4.696,4.696,4.676,4.676,4.656,4.676,4.656,4.656,4.656,4.637,4.637,4.637,4.618,4.618,4.618,4.618,4.618,4.618,4.637,4.637,4.637,4.637,4.637,4.637,4.637,4.637,4.637,4.637,4.656,4.656,4.656,4.656,4.656,4.637,4.637,4.618,4.618,4.598,4.598,4.598,4.579,4.579,4.579,4.598,4.598,4.598,4.598,4.618,4.637,4.637,4.656,4.656,4.676,4.696,4.716,4.736,4.736,4.756,4.756,4.777,4.777,4.797,4.797,4.797,4.818,4.818,4.818,4.818,4.818,4.818,4.818,4.818,4.818,4.818,4.818,4.818,4.839,4.839,4.839,4.839,4.839,4.839,4.839,4.839,4.839,4.839,4.839,4.839,4.861,4.861,4.861,4.861,4.861,4.861,4.861,4.839,4.861,4.861,4.861,4.861,4.861,4.839,4.839,4.818,4.818,4.797,4.777,4.777,4.777,4.777,4.777,4.756,4.756,4.756,4.736,4.736,4.716,4.696,4.676,4.656,4.656,4.637,4.618,4.598,4.579,4.561,4.542,4.523,4.505,4.487,4.451,4.433,4.415,4.38,4.363,4.346,4.312,4.279,4.262,4.23,4.198,4.182,4.166,4.135,4.12,4.104,4.104,4.089,4.074,4.059,4.045,4.03,4.015,4.001,3.986,3.972,3.958,3.93,3.916,3.902,3.875,3.861,3.835,3.821,3.795,3.782,3.769,3.744,3.731,3.719,3.694,3.682,3.67,3.657,3.633,3.622,3.598,3.586,3.563,3.529,3.507,3.496,3.474,3.452,3.431,3.42,3.399,3.389,3.379,3.368,3.358,3.348,3.348,3.338,3.328,3.318,3.308,3.298,3.298,3.288,3.279,3.269,3.259,3.25,3.231,3.222,3.194,3.175,3.157,3.131,3.113,3.087,3.07,3.053,3.045,3.036,3.028,3.02,3.011,3.003,2.995,2.987,2.979,2.971,2.963,2.947,2.94,2.924,2.909,2.894,2.886,2.871,2.864,2.849,2.842,2.827,2.82,2.813,2.806,2.799,2.791,2.784,2.777,2.771,2.764,2.757,2.743,2.736,2.73,2.723,2.716,2.703,2.696,2.683,2.67,2.664,2.658,2.645,2.639,2.626,2.614,2.608,2.601,2.595,2.589,2.583,2.577,2.577,2.571,2.565,2.559,2.553,2.548,2.548,2.542,2.536,2.53,2.524,2.519,2.513,2.507,2.502,2.49,2.479,2.474,2.463,2.452,2.441,2.43,2.425,2.414,2.409,2.404,2.394,2.388,2.388,2.383,2.378,2.373,2.363,2.358,2.353,2.348,2.338,2.333,2.328,2.318,2.314,2.309,2.304,2.294,2.29,2.285,2.28,2.276,2.271,2.262,2.257,2.252,2.248,2.243,2.239,2.234,2.234
4.451,4.451,4.451,4.451,4.451,4.433,4.415,4.415,4.415,4.398,4.38,4.363,4.346,4.346,4.329,4.312,4.312,4.295,4.279,4.279,4.279,4.279,4.279,4.295,4.295,4.295,4.312,4.329,4.346,4.346,4.346,4.346,4.346,4.346,4.346,4.346,4.346,4.346,4.346,4.363,4.363,4.363,4.363,4.363,4.363,4.363,4.363,4.363,4.363,4.363,4.38,4.38,4.38,4.398,4.415,4.415,4.415,4.415,4.433,4.433,4.433,4.433,4.433,4.433,4.451,4.451,4.451,4.469,4.469,4.469,4.469,4.487,4.505,4.505,4.523,4.523,4.523,4.542,4.542,4.542,4.542,4.542,4.561,4.561,4.561,4.561,4.542,4.542,4.542,4.523,4.523,4.523,4.523,4.523,4.523,4.542,4.542,4.542,4.523,4.523,4.523,4.523,4.523,4.523,4.505,4.505,4.505,4.505,4.523,4.523,4.523,4.523,4.523,4.523,4.523,4.523,4.542,4.542,4.542,4.561,4.561,4.561,4.579,4.579,4.598,4.598,4.618,4.637,4.656,4.676,4.676,4.696,4.696,4.696,4.696,4.696,4.696,4.676,4.676,4.656,4.656,4.656,4.637,4.637,4.637,4.637,4.637,4.637,4.637,4.618,4.618,4.618,4.618,4.618,4.618,4.598,4.598,4.598,4.598,4.618,4.618,4.618,4.637,4.637,4.637,4.637,4.637,4.637,4.618,4.618,4.618,4.598,4.598,4.598,4.598,4.598,4.579,4.579,4.561,4.561,4.561,4.579,4.579,4.598,4.598,4.618,4.637,4.656,4.676,4.696,4.696,4.696,4.716,4.716,4.716,4.716,4.716,4.696,4.696,4.696,4.696,4.696,4.696,4.696,4.676,4.676,4.676,4.676,4.676,4.676,4.656,4.656,4.676,4.676,4.676,4.676,4.676,4.676,4.676,4.676,4.676,4.656,4.656,4.656,4.676,4.676,4.656,4.656,4.656,4.656,4.637,4.637,4.637,4.637,4.618,4.618,4.618,4.618,4.618,4.618,4.618,4.637,4.637,4.637,4.656,4.676,4.676,4.696,4.696,4.716,4.736,4.756,4.777,4.777,4.797,4.797,4.818,4.839,4.839,4.839,4.861,4.861,4.861,4.861,4.861,4.839,4.861,4.839,4.839,4.839,4.861,4.861,4.861,4.882,4.882,4.882,4.882,4.882,4.882,4.882,4.882,4.882,4.882,4.882,4.882,4.882,4.882,4.882,4.882,4.861,4.882,4.882,4.882,4.882,4.882,4.882,4.882,4.861,4.861,4.839,4.839,4.818,4.797,4.797,4.777,4.777,4.777,4.756,4.756,4.756,4.736,4.736,4.736,4.716,4.696,4.676,4.656,4.637,4.618,4.618,4.579,4.579,4.561,4.523,4.505,4.487,4.469,4.433,4.415,4.38,4.363,4.329,4.312,4.279,4.246,4.23,4.198,4.166,4.151,4.135,4.12,4.104,4.089,4.074,4.074,4.059,4.045,4.03,4.015,4.001,3.986,3.972,3.958,3.93,3.916,3.902,3.875,3.848,3.835,3.808,3.795,3.782,3.757,3.744,3.731,3.706,3.694,3.682,3.67,3.657,3.633,3.622,3.598,3.586,3.563,3.541,3.518,3.496,3.474,3.452,3.431,3.42,3.399,3.389,3.379,3.368,3.358,3.348,3.338,3.328,3.318,3.308,3.308,3.298,3.288,3.279,3.269,3.259,3.25,3.231,3.222,3.203,3.185,3.166,3.139,3.122,3.104,3.078,3.061,3.053,3.045,3.036,3.028,3.02,3.011,3.003,2.995,2.987,2.979,2.971,2.963,2.955,2.94,2.924,2.916,2.901,2.886,2.878,2.864,2.849,2.842,2.827,2.82,2.813,2.806,2.799,2.791,2.784,2.771,2.771,2.757,2.75,2.743,2.736,2.73,2.716,2.71,2.703,2.69,2.683,2.67,2.664,2.651,2.645,2.632,2.62,2.614,2.608,2.601,2.589,2.583,2.577,2.571,2.571,2.565,2.565,2.559,2.553,2.548,2.542,2.536,2.53,2.524,2.519,2.513,2.507,2.502,2.496,2.485,2.479,2.474,2.463,2.452,2.441,2.43,2.425,2.42,2.409,2.404,2.399,2.394,2.388,2.383,2.378,2.373,2.368,2.363,2.358,2.348,2.343,2.338,2.333,2.323,2.318,2.309,2.304,2.299,2.294,2.29,2.28,2.276,2.271,2.266,2.257,2.252,2.248,2.243,2.239,2.234,2.234
4.469,4.487,4.469,4.469,4.469,4.451,4.451,4.451,4.433,4.433,4.415,4.398,4.398,4.38,4.363,4.363,4.346,4.329,4.329,4.312,4.312,4.312,4.312,4.312,4.329,4.329,4.346,4.346,4.363,4.363,4.38,4.38,4.38,4.363,4.38,4.38,4.38,4.38,4.38,4.38,4.38,4.38,4.398,4.38,4.38,4.38,4.38,4.38,4.38,4.38,4.38,4.38,4.398,4.415,4.415,4.415,4.415,4.433,4.433,4.433,4.451,4.451,4.451,4.451,4.451,4.469,4.469,4.487,4.487,4.487,4.505,4.523,4.542,4.542,4.561,4.561,4.579,4.598,4.598,4.598,4.618,4.598,4.598,4.598,4.598,4.598,4.598,4.579,4.579,4.579,4.579,4.579,4.579,4.561,4.579,4.579,4.579,4.561,4.561,4.561,4.561,4.561,4.561,4.561,4.561,4.561,4.561,4.561,4.561,4.579,4.579,4.579,4.579,4.579,4.579,4.579,4.579,4.579,4.598,4.598,4.598,4.618,4.618,4.618,4.637,4.637,4.656,4.676,4.696,4.716,4.716,4.716,4.736,4.736,4.736,4.736,4.716,4.696,4.696,4.696,4.696,4.676,4.676,4.676,4.676,4.676,4.676,4.676,4.656,4.656,4.656,4.656,4.656,4.656,4.637,4.637,4.637,4.637,4.656,4.656,4.656,4.676,4.676,4.676,4.676,4.676,4.676,4.676,4.676,4.676,4.656,4.656,4.656,4.656,4.637,4.637,4.637,4.618,4.618,4.618,4.618,4.618,4.618,4.618,4.637,4.637,4.656,4.676,4.676,4.696,4.696,4.696,4.716,4.716,4.716,4.716,4.716,4.716,4.716,4.716,4.716,4.716,4.736,4.716,4.716,4.716,4.716,4.716,4.716,4.696,4.696,4.696,4.696,4.696,4.696,4.696,4.696,4.696,4.696,4.696,4.696,4.676,4.676,4.676,4.676,4.676,4.676,4.676,4.676,4.656,4.656,4.656,4.656,4.656,4.656,4.656,4.656,4.656,4.656,4.676,4.676,4.676,4.676,4.676,4.696,4.696,4.716,4.716,4.736,4.756,4.777,4.777,4.797,4.818,4.818,4.839,4.839,4.861,4.861,4.882,4.882,4.882,4.882,4.904,4.882,4.882,4.882,4.882,4.882,4.882,4.882,4.882,4.882,4.904,4.904,4.904,4.904,4.904,4.882,4.904,4.904,4.904,4.904,4.904,4.904,4.904,4.904,4.904,4.904,4.904,4.882,4.882,4.882,4.882,4.882,4.882,4.882,4.882,4.861,4.861,4.839,4.839,4.818,4.797,4.797,4.777,4.777,4.777,4.756,4.756,4.756,4.736,4.736,4.716,4.696,4.696,4.676,4.656,4.637,4.618,4.598,4.579,4.561,4.542,4.523,4.505,4.469,4.451,4.415,4.38,4.363,4.329,4.312,4.279,4.246,4.214,4.182,4.166,4.151,4.135,4.12,4.104,4.089,4.074,4.059,4.045,4.03,4.03,4.015,4.001,3.986,3.972,3.944,3.93,3.916,3.888,3.875,3.848,3.821,3.808,3.795,3.769,3.757,3.744,3.719,3.706,3.694,3.682,3.67,3.645,3.633,3.622,3.598,3.586,3.563,3.541,3.518,3.496,3.474,3.452,3.442,3.42,3.399,3.389,3.368,3.358,3.348,3.338,3.338,3.328,3.318,3.308,3.298,3.288,3.279,3.269,3.259,3.25,3.231,3.222,3.203,3.194,3.175,3.148,3.131,3.113,3.096,3.07,3.061,3.045,3.036,3.036,3.028,3.02,3.011,3.003,2.995,2.987,2.979,2.971,2.963,2.955,2.94,2.932,2.916,2.901,2.886,2.878,2.864,2.856,2.842,2.827,2.82,2.813,2.806,2.799,2.791,2.784,2.771,2.764,2.757,2.75,2.743,2.736,2.723,2.716,2.71,2.696,2.69,2.677,2.67,2.658,2.651,2.639,2.632,2.62,2.608,2.601,2.595,2.589,2.583,2.577,2.571,2.565,2.565,2.559,2.553,2.548,2.542,2.536,2.53,2.524,2.519,2.513,2.507,2.502,2.496,2.49,2.479,2.474,2.463,2.457,2.446,2.441,2.43,2.425,2.414,2.409,2.404,2.399,2.394,2.394,2.388,2.383,2.378,2.373,2.363,2.358,2.353,2.348,2.338,2.333,2.328,2.318,2.314,2.309,2.299,2.294,2.29,2.285,2.276,2.271,2.266,2.257,2.252,2.248,2.243,2.239,2.234,2.234
4.487,4.487,4.487,4.487,4.487,4.469,4.469,4.469,4.451,4.451,4.433,4.433,4.415,4.415,4.398,4.38,4.38,4.38,4.363,4.346,4.346,4.346,4.346,4.346,4.346,4.363,4.363,4.38,4.38,4.398,4.398,4.398,4.398,4.398,4.398,4.415,4.415,4.415,4.415,4.415,4.415,4.415,4.415,4.415,4.398,4.398,4.398,4.398,4.398,4.398,4.398,4.398,4.415,4.415,4.415,4.415,4.433,4.433,4.433,4.451,4.451,4.451,4.451,4.469,4.469,4.469,4.487,4.505,4.505,4.523,4.542,4.542,4.579,4.579,4.598,4.618,4.618,4.637,4.637,4.656,4.656,4.656,4.656,4.637,4.637,4.637,4.637,4.618,4.618,4.618,4.618,4.618,4.618,4.598,4.598,4.598,4.598,4.598,4.598,4.598,4.598,4.598,4.598,4.598,4.598,4.598,4.598,4.618,4.618,4.618,4.618,4.637,4.637,4.637,4.637,4.637,4.637,4.637,4.637,4.637,4.656,4.656,4.656,4.676,4.676,4.676,4.696,4.716,4.736,4.736,4.756,4.756,4.756,4.756,4.756,4.756,4.736,4.736,4.736,4.716,4.716,4.716,4.696,4.696,4.696,4.716,4.716,4.696,4.696,4.696,4.696,4.696,4.696,4.696,4.696,4.696,4.676,4.696,4.696,4.696,4.696,4.716,4.716,4.716,4.716,4.716,4.716,4.716,4.716,4.716,4.716,4.716,4.716,4.716,4.696,4.696,4.676,4.676,4.676,4.656,4.656,4.656,4.656,4.676,4.676,4.676,4.676,4.696,4.696,4.716,4.716,4.716,4.716,4.736,4.736,4.736,4.736,4.736,4.736,4.736,4.736,4.756,4.756,4.756,4.756,4.756,4.756,4.756,4.736,4.736,4.736,4.736,4.736,4.736,4.736,4.736,4.736,4.736,4.716,4.716,4.716,4.696,4.696,4.696,4.676,4.676,4.676,4.676,4.676,4.676,4.676,4.676,4.676,4.676,4.676,4.676,4.696,4.696,4.696,4.696,4.716,4.716,4.736,4.736,4.736,4.736,4.756,4.756,4.777,4.777,4.797,4.818,4.839,4.839,4.861,4.882,4.882,4.904,4.904,4.904,4.925,4.925,4.925,4.925,4.904,4.904,4.904,4.904,4.904,4.904,4.904,4.904,4.904,4.925,4.925,4.925,4.925,4.925,4.925,4.925,4.925,4.925,4.925,4.925,4.925,4.925,4.925,4.925,4.925,4.904,4.904,4.904,4.904,4.904,4.904,4.904,4.882,4.882,4.882,4.882,4.861,4.839,4.818,4.818,4.818,4.797,4.797,4.777,4.777,4.777,4.756,4.756,4.736,4.736,4.716,4.696,4.676,4.676,4.656,4.637,4.618,4.598,4.579,4.542,4.523,4.505,4.469,4.451,4.415,4.38,4.363,4.329,4.295,4.262,4.23,4.198,4.182,4.151,4.135,4.12,4.104,4.089,4.089,4.074,4.059,4.045,4.03,4.015,4.015,3.986,3.972,3.958,3.944,3.93,3.902,3.888,3.861,3.848,3.821,3.808,3.782,3.769,3.757,3.731,3.719,3.706,3.694,3.682,3.67,3.645,3.633,3.622,3.61,3.586,3.563,3.552,3.529,3.507,3.485,3.463,3.442,3.42,3.399,3.389,3.368,3.358,3.348,3.338,3.328,3.318,3.318,3.308,3.298,3.288,3.269,3.259,3.25,3.24,3.231,3.212,3.194,3.175,3.157,3.139,3.122,3.104,3.087,3.07,3.053,3.045,3.036,3.028,3.028,3.02,3.011,3.003,2.995,2.987,2.979,2.971,2.963,2.955,2.94,2.932,2.916,2.901,2.894,2.878,2.864,2.856,2.842,2.834,2.82,2.813,2.806,2.799,2.791,2.784,2.777,2.764,2.757,2.75,2.743,2.736,2.723,2.716,2.703,2.696,2.683,2.677,2.664,2.658,2.645,2.639,2.626,2.614,2.608,2.601,2.595,2.583,2.577,2.571,2.571,2.565,2.559,2.553,2.548,2.542,2.536,2.53,2.53,2.524,2.519,2.507,2.502,2.496,2.49,2.485,2.474,2.468,2.457,2.452,2.446,2.436,2.425,2.42,2.414,2.409,2.404,2.399,2.394,2.394,2.388,2.383,2.378,2.373,2.368,2.363,2.358,2.348,2.343,2.338,2.333,2.323,2.318,2.309,2.304,2.294,2.29,2.285,2.28,2.271,2.266,2.257,2.252,2.248,2.243,2.239,2.234,2.234
4.487,4.505,4.505,4.505,4.487,4.487,4.469,4.469,4.469,4.469,4.451,4.451,4.433,4.433,4.433,4.415,4.415,4.398,4.398,4.38,4.38,4.363,4.363,4.38,4.38,4.38,4.38,4.398,4.398,4.415,4.415,4.415,4.415,4.415,4.433,4.433,4.433,4.433,4.433,4.433,4.433,4.433,4.451,4.433,4.415,4.415,4.415,4.415,4.415,4.415,4.415,4.415,4.415,4.415,4.433,4.433,4.433,4.433,4.451,4.451,4.469,4.469,4.469,4.469,4.487,4.487,4.505,4.523,4.542,4.542,4.561,4.598,4.618,4.618,4.637,4.656,4.676,4.696,4.696,4.696,4.696,4.696,4.696,4.696,4.696,4.676,4.676,4.676,4.656,4.656,4.656,4.656,4.637,4.637,4.637,4.637,4.637,4.637,4.637,4.637,4.618,4.618,4.618,4.637,4.637,4.637,4.637,4.637,4.656,4.656,4.656,4.656,4.676,4.676,4.676,4.676,4.676,4.676,4.696,4.696,4.696,4.696,4.696,4.716,4.716,4.716,4.736,4.756,4.777,4.777,4.777,4.797,4.797,4.797,4.797,4.797,4.777,4.756,4.756,4.756,4.736,4.736,4.736,4.716,4.736,4.736,4.736,4.736,4.736,4.736,4.736,4.736,4.736,4.736,4.736,4.736,4.736,4.736,4.736,4.736,4.736,4.736,4.736,4.736,4.756,4.756,4.756,4.756,4.756,4.756,4.756,4.756,4.756,4.756,4.736,4.736,4.736,4.716,4.716,4.716,4.716,4.696,4.696,4.716,4.716,4.716,4.716,4.716,4.716,4.716,4.716,4.716,4.736,4.736,4.756,4.756,4.756,4.756,4.756,4.756,4.777,4.777,4.777,4.777,4.797,4.777,4.777,4.777,4.777,4.777,4.777,4.777,4.756,4.756,4.756,4.756,4.756,4.756,4.736,4.736,4.716,4.716,4.696,4.696,4.676,4.676,4.676,4.676,4.676,4.676,4.676,4.676,4.676,4.696,4.696,4.716,4.736,4.736,4.736,4.756,4.756,4.756,4.756,4.777,4.777,4.797,4.797,4.797,4.818,4.818,4.839,4.861,4.861,4.882,4.904,4.904,4.925,4.925,4.925,4.947,4.947,4.947,4.947,4.947,4.947,4.947,4.947,4.947,4.925,4.947,4.947,4.947,4.947,4.947,4.947,4.947,4.947,4.947,4.947,4.947,4.947,4.947,4.947,4.947,4.947,4.947,4.947,4.947,4.925,4.925,4.925,4.925,4.925,4.925,4.925,4.904,4.904,4.882,4.882,4.882,4.861,4.861,4.839,4.818,4.818,4.797,4.797,4.797,4.777,4.777,4.777,4.756,4.736,4.736,4.716,4.696,4.696,4.676,4.656,4.637,4.618,4.598,4.579,4.561,4.542,4.505,4.487,4.451,4.415,4.38,4.363,4.329,4.295,4.262,4.23,4.198,4.166,4.151,4.135,4.12,4.104,4.089,4.074,4.059,4.059,4.045,4.03,4.015,4.001,3.986,3.972,3.958,3.944,3.916,3.902,3.875,3.861,3.835,3.821,3.808,3.782,3.769,3.757,3.731,3.719,3.706,3.694,3.682,3.67,3.657,3.633,3.622,3.61,3.586,3.563,3.552,3.529,3.507,3.485,3.463,3.442,3.42,3.399,3.379,3.368,3.358,3.348,3.338,3.328,3.318,3.308,3.298,3.288,3.279,3.269,3.259,3.24,3.231,3.222,3.203,3.185,3.166,3.148,3.131,3.113,3.096,3.078,3.07,3.053,3.045,3.036,3.028,3.02,3.02,3.011,3.003,2.995,2.987,2.979,2.971,2.963,2.955,2.94,2.932,2.916,2.901,2.894,2.878,2.871,2.856,2.842,2.834,2.827,2.813,2.806,2.799,2.791,2.784,2.777,2.771,2.757,2.75,2.743,2.736,2.723,2.716,2.703,2.696,2.683,2.677,2.664,2.651,2.645,2.632,2.626,2.614,2.608,2.595,2.589,2.583,2.577,2.571,2.565,2.565,2.559,2.553,2.548,2.542,2.536,2.53,2.524,2.519,2.513,2.502,2.496,2.49,2.485,2.479,2.468,2.463,2.452,2.446,2.441,2.43,2.42,2.414,2.409,2.409,2.404,2.399,2.394,2.394,2.388,2.383,2.378,2.373,2.368,2.363,2.358,2.353,2.343,2.338,2.333,2.328,2.318,2.314,2.304,2.299,2.29,2.285,2.28,2.271,2.266,2.257,2.252,2.248,2.243,2.239,2.234,2.234
4.505,4.505,4.505,4.487,4.487,4.487,4.487,4.487,4.469,4.469,4.469,4.469,4.451,4.451,4.451,4.451,4.451,4.433,4.415,4.415,4.415,4.398,4.398,4.398,4.398,4.398,4.415,4.415,4.433,4.433,4.433,4.433,4.451,4.451,4.451,4.451,4.451,4.451,4.469,4.469,4.469,4.469,4.469,4.469,4.451,4.451,4.433,4.433,4.433,4.433,4.433,4.433,4.433,4.433,4.451,4.451,4.451,4.451,4.469,4.469,4.469,4.487,4.487,4.487,4.505,4.523,4.542,4.542,4.561,4.579,4.598,4.618,4.637,4.656,4.676,4.696,4.716,4.736,4.756,4.756,4.756,4.756,4.756,4.736,4.736,4.716,4.716,4.716,4.696,4.696,4.696,4.676,4.676,4.676,4.676,4.676,4.656,4.656,4.656,4.656,4.637,4.656,4.656,4.656,4.656,4.656,4.676,4.676,4.676,4.696,4.696,4.696,4.696,4.716,4.716,4.716,4.716,4.736,4.736,4.736,4.736,4.736,4.756,4.756,4.756,4.777,4.797,4.797,4.797,4.818,4.818,4.818,4.818,4.839,4.839,4.818,4.797,4.797,4.797,4.777,4.777,4.756,4.756,4.756,4.756,4.756,4.756,4.777,4.777,4.756,4.756,4.756,4.756,4.756,4.756,4.756,4.756,4.756,4.756,4.777,4.777,4.777,4.777,4.777,4.777,4.797,4.797,4.777,4.777,4.797,4.797,4.797,4.797,4.797,4.777,4.777,4.756,4.756,4.756,4.756,4.736,4.736,4.736,4.736,4.736,4.736,4.736,4.736,4.736,4.736,4.736,4.736,4.756,4.756,4.777,4.777,4.777,4.777,4.777,4.797,4.797,4.818,4.818,4.818,4.818,4.818,4.818,4.818,4.818,4.797,4.797,4.797,4.797,4.777,4.777,4.777,4.777,4.777,4.756,4.736,4.716,4.716,4.696,4.696,4.696,4.676,4.676,4.676,4.676,4.696,4.696,4.696,4.696,4.696,4.716,4.736,4.756,4.756,4.777,4.777,4.777,4.797,4.818,4.818,4.818,4.818,4.839,4.839,4.861,4.861,4.861,4.882,4.904,4.925,4.925,4.925,4.947,4.947,4.947,4.97,4.97,4.97,4.97,4.97,4.97,4.97,4.97,4.97,4.97,4.97,4.97,4.97,4.97,4.97,4.97,4.97,4.97,4.97,4.97,4.97,4.97,4.97,4.97,4.97,4.97,4.97,4.97,4.947,4.947,4.947,4.925,4.925,4.925,4.925,4.904,4.904,4.904,4.904,4.904,4.904,4.882,4.861,4.839,4.839,4.839,4.818,4.797,4.797,4.777,4.777,4.777,4.756,4.756,4.736,4.716,4.716,4.696,4.676,4.656,4.637,4.618,4.598,4.579,4.561,4.542,4.505,4.487,4.451,4.433,4.398,4.363,4.329,4.295,4.262,4.23,4.198,4.166,4.151,4.135,4.12,4.104,4.089,4.074,4.059,4.045,4.045,4.03,4.015,4.001,3.986,3.972,3.958,3.93,3.916,3.888,3.875,3.861,3.835,3.821,3.808,3.782,3.769,3.757,3.744,3.719,3.706,3.694,3.682,3.67,3.657,3.633,3.622,3.598,3.586,3.563,3.552,3.529,3.507,3.485,3.463,3.442,3.42,3.399,3.379,3.368,3.348,3.338,3.328,3.318,3.308,3.298,3.288,3.279,3.269,3.259,3.25,3.231,3.222,3.212,3.194,3.175,3.157,3.139,3.122,3.104,3.096,3.078,3.061,3.053,3.045,3.036,3.028,3.02,3.02,3.011,3.003,2.995,2.987,2.979,2.971,2.963,2.955,2.94,2.932,2.916,2.901,2.894,2.878,2.871,2.856,2.849,2.834,2.827,2.82,2.813,2.799,2.791,2.784,2.777,2.771,2.764,2.75,2.743,2.736,2.723,2.716,2.703,2.696,2.683,2.67,2.664,2.651,2.645,2.632,2.62,2.614,2.601,2.595,2.589,2.583,2.577,2.571,2.571,2.565,2.559,2.553,2.548,2.542,2.536,2.53,2.519,2.513,2.507,2.496,2.49,2.485,2.474,2.468,2.463,2.452,2.446,2.436,2.43,2.425,2.42,2.414,2.409,2.404,2.404,2.399,2.394,2.394,2.388,2.388,2.383,2.378,2.373,2.368,2.363,2.353,2.348,2.343,2.338,2.328,2.323,2.314,2.309,2.299,2.294,2.285,2.28,2.271,2.266,2.257,2.252,2.248,2.243,2.239,2.239,2.234
4.487,4.487,4.487,4.487,4.487,4.487,4.487,4.487,4.487,4.469,4.469,4.469,4.469,4.469,4.469,4.451,4.451,4.451,4.433,4.433,4.415,4.415,4.415,4.415,4.415,4.415,4.433,4.433,4.433,4.451,4.451,4.451,4.451,4.469,4.469,4.469,4.469,4.469,4.487,4.487,4.487,4.487,4.487,4.487,4.469,4.469,4.469,4.469,4.451,4.451,4.451,4.451,4.469,4.469,4.469,4.469,4.469,4.469,4.487,4.487,4.487,4.505,4.505,4.505,4.523,4.542,4.542,4.561,4.579,4.598,4.618,4.637,4.676,4.696,4.696,4.736,4.756,4.777,4.777,4.777,4.797,4.797,4.777,4.777,4.756,4.756,4.756,4.736,4.736,4.716,4.716,4.696,4.696,4.696,4.676,4.676,4.676,4.676,4.676,4.676,4.676,4.676,4.676,4.676,4.676,4.676,4.696,4.696,4.696,4.716,4.716,4.736,4.736,4.756,4.756,4.756,4.777,4.777,4.777,4.797,4.797,4.797,4.797,4.797,4.797,4.818,4.839,4.839,4.839,4.861,4.861,4.861,4.861,4.861,4.861,4.839,4.839,4.839,4.818,4.797,4.797,4.797,4.797,4.797,4.797,4.797,4.797,4.797,4.797,4.797,4.797,4.797,4.797,4.797,4.797,4.797,4.797,4.797,4.797,4.797,4.797,4.818,4.818,4.818,4.818,4.818,4.818,4.818,4.818,4.818,4.818,4.818,4.818,4.818,4.818,4.797,4.797,4.797,4.777,4.777,4.756,4.756,4.756,4.756,4.756,4.756,4.756,4.756,4.756,4.777,4.777,4.777,4.777,4.797,4.797,4.797,4.797,4.818,4.818,4.818,4.839,4.839,4.839,4.861,4.861,4.861,4.861,4.861,4.839,4.839,4.839,4.818,4.818,4.818,4.797,4.797,4.797,4.797,4.777,4.756,4.736,4.736,4.716,4.696,4.696,4.696,4.676,4.676,4.696,4.696,4.696,4.696,4.716,4.716,4.736,4.756,4.777,4.797,4.797,4.818,4.818,4.839,4.839,4.861,4.861,4.861,4.882,4.882,4.882,4.904,4.904,4.925,4.925,4.947,4.947,4.97,4.97,4.97,4.992,4.992,4.992,5.015,5.015,5.015,5.015,5.015,4.992,4.992,4.992,4.992,5.015,4.992,4.992,5.015,5.015,5.015,5.015,5.015,4.992,4.992,5.015,5.015,5.015,5.015,4.992,4.992,4.992,4.97,4.97,4.947,4.947,4.925,4.925,4.925,4.925,4.925,4.925,4.925,4.904,4.904,4.882,4.882,4.861,4.861,4.839,4.839,4.818,4.818,4.797,4.777,4.777,4.756,4.756,4.736,4.716,4.716,4.696,4.696,4.656,4.637,4.618,4.618,4.598,4.561,4.542,4.523,4.487,4.469,4.433,4.398,4.363,4.329,4.295,4.262,4.23,4.198,4.166,4.151,4.12,4.12,4.104,4.089,4.074,4.059,4.045,4.045,4.03,4.015,4.001,3.986,3.958,3.944,3.93,3.902,3.888,3.875,3.848,3.835,3.821,3.795,3.782,3.769,3.757,3.744,3.719,3.706,3.694,3.682,3.67,3.657,3.633,3.622,3.598,3.586,3.563,3.552,3.529,3.507,3.485,3.463,3.442,3.42,3.399,3.379,3.368,3.348,3.338,3.328,3.318,3.308,3.298,3.288,3.279,3.269,3.25,3.24,3.231,3.212,3.203,3.185,3.166,3.157,3.139,3.122,3.104,3.087,3.078,3.061,3.053,3.045,3.036,3.028,3.02,3.011,3.011,3.003,2.995,2.987,2.979,2.971,2.963,2.947,2.94,2.932,2.916,2.901,2.894,2.878,2.871,2.856,2.849,2.834,2.827,2.82,2.813,2.806,2.799,2.791,2.777,2.771,2.764,2.757,2.743,2.736,2.723,2.716,2.703,2.696,2.683,2.67,2.664,2.651,2.639,2.632,2.62,2.614,2.601,2.595,2.589,2.583,2.577,2.571,2.571,2.565,2.559,2.553,2.548,2.536,2.53,2.524,2.519,2.513,2.502,2.49,2.485,2.474,2.468,2.457,2.452,2.446,2.441,2.43,2.425,2.42,2.414,2.409,2.409,2.404,2.399,2.399,2.394,2.388,2.388,2.388,2.383,2.378,2.373,2.368,2.368,2.358,2.353,2.348,2.338,2.333,2.328,2.318,2.309,2.304,2.294,2.29,2.28,2.271,2.266,2.257,2.252,2.248,2.243,2.239,2.239,2.234
4.469,4.469,4.487,4.469,4.469,4.469,4.469,4.469,4.469,4.469,4.469,4.469,4.469,4.469,4.469,4.469,4.451,4.451,4.451,4.451,4.433,4.433,4.433,4.433,4.433,4.433,4.451,4.451,4.451,4.469,4.469,4.469,4.469,4.469,4.487,4.487,4.487,4.487,4.505,4.505,4.505,4.505,4.505,4.505,4.487,4.487,4.487,4.487,4.469,4.469,4.469,4.469,4.469,4.487,4.487,4.487,4.487,4.487,4.505,4.505,4.505,4.505,4.523,4.523,4.542,4.561,4.561,4.579,4.598,4.618,4.637,4.656,4.696,4.716,4.736,4.756,4.777,4.797,4.818,4.818,4.818,4.818,4.818,4.797,4.797,4.777,4.777,4.756,4.736,4.736,4.736,4.716,4.716,4.696,4.696,4.696,4.696,4.696,4.696,4.696,4.696,4.696,4.696,4.696,4.716,4.716,4.716,4.736,4.736,4.736,4.756,4.756,4.756,4.777,4.777,4.797,4.797,4.818,4.818,4.818,4.839,4.839,4.839,4.839,4.839,4.861,4.882,4.882,4.882,4.904,4.904,4.904,4.904,4.904,4.882,4.882,4.861,4.861,4.839,4.839,4.839,4.839,4.839,4.839,4.839,4.839,4.818,4.818,4.818,4.839,4.839,4.839,4.818,4.839,4.839,4.839,4.839,4.839,4.839,4.839,4.839,4.839,4.839,4.861,4.861,4.861,4.861,4.861,4.861,4.861,4.861,4.861,4.861,4.861,4.861,4.839,4.839,4.818,4.818,4.797,4.797,4.797,4.797,4.797,4.797,4.797,4.777,4.797,4.797,4.797,4.797,4.818,4.818,4.818,4.839,4.839,4.861,4.861,4.861,4.861,4.882,4.882,4.882,4.904,4.904,4.882,4.882,4.882,4.882,4.882,4.861,4.861,4.839,4.839,4.839,4.839,4.818,4.797,4.797,4.756,4.756,4.736,4.716,4.716,4.716,4.696,4.696,4.696,4.696,4.716,4.716,4.716,4.716,4.736,4.756,4.777,4.777,4.797,4.818,4.839,4.861,4.861,4.882,4.882,4.882,4.904,4.904,4.925,4.925,4.947,4.947,4.947,4.97,4.97,4.992,4.992,4.992,4.992,5.015,5.015,5.015,5.037,5.037,5.037,5.037,5.037,5.015,5.015,5.015,5.037,5.037,5.037,5.037,5.037,5.037,5.037,5.037,5.037,5.037,5.037,5.037,5.037,5.037,5.037,5.015,5.015,5.015,4.992,4.992,4.97,4.97,4.947,4.947,4.947,4.947,4.947,4.947,4.925,4.925,4.925,4.904,4.882,4.882,4.861,4.839,4.839,4.818,4.818,4.797,4.797,4.777,4.756,4.756,4.736,4.736,4.716,4.696,4.696,4.676,4.656,4.637,4.618,4.598,4.579,4.542,4.523,4.505,4.469,4.433,4.398,4.363,4.329,4.295,4.262,4.23,4.198,4.166,4.151,4.135,4.12,4.104,4.089,4.074,4.059,4.059,4.045,4.03,4.015,4.001,3.986,3.958,3.944,3.916,3.902,3.875,3.861,3.848,3.821,3.808,3.795,3.769,3.757,3.744,3.731,3.719,3.706,3.694,3.682,3.67,3.645,3.633,3.622,3.598,3.586,3.563,3.552,3.529,3.507,3.485,3.463,3.442,3.42,3.399,3.379,3.368,3.348,3.338,3.328,3.318,3.308,3.298,3.279,3.269,3.259,3.25,3.231,3.222,3.203,3.194,3.175,3.166,3.148,3.131,3.113,3.104,3.087,3.07,3.061,3.053,3.045,3.036,3.028,3.02,3.011,3.003,2.995,2.987,2.979,2.971,2.963,2.955,2.947,2.94,2.924,2.916,2.901,2.894,2.878,2.871,2.864,2.849,2.842,2.834,2.82,2.813,2.806,2.799,2.791,2.784,2.771,2.764,2.757,2.743,2.736,2.723,2.716,2.703,2.696,2.683,2.67,2.658,2.651,2.639,2.626,2.62,2.608,2.601,2.595,2.589,2.583,2.577,2.571,2.565,2.565,2.559,2.548,2.542,2.536,2.53,2.524,2.513,2.507,2.496,2.485,2.479,2.468,2.463,2.452,2.446,2.441,2.43,2.425,2.42,2.414,2.409,2.409,2.404,2.404,2.399,2.394,2.394,2.388,2.388,2.388,2.383,2.378,2.378,2.373,2.368,2.363,2.358,2.348,2.343,2.338,2.328,2.323,2.314,2.304,2.299,2.29,2.285,2.276,2.266,2.262,2.252,2.248,2.243,2.239,2.239,2.234
4.469,4.469,4.469,4.469,4.469,4.469,4.469,4.469,4.469,4.469,4.469,4.469,4.469,4.469,4.469,4.469,4.469,4.469,4.469,4.451,4.451,4.451,4.451,4.451,4.451,4.451,4.469,4.469,4.469,4.487,4.487,4.487,4.487,4.487,4.487,4.505,4.505,4.505,4.523,4.523,4.523,4.523,4.523,4.523,4.505,4.505,4.505,4.505,4.487,4.487,4.487,4.487,4.487,4.505,4.505,4.505,4.505,4.523,4.523,4.523,4.523,4.523,4.523,4.542,4.561,4.561,4.579,4.579,4.598,4.618,4.656,4.676,4.696,4.716,4.756,4.777,4.797,4.818,4.839,4.839,4.839,4.839,4.839,4.818,4.818,4.797,4.777,4.777,4.756,4.756,4.736,4.736,4.716,4.716,4.696,4.696,4.696,4.696,4.696,4.696,4.696,4.696,4.716,4.716,4.716,4.716,4.736,4.736,4.756,4.756,4.777,4.777,4.797,4.797,4.818,4.818,4.839,4.839,4.839,4.861,4.861,4.882,4.882,4.882,4.882,4.882,4.904,4.904,4.925,4.925,4.925,4.925,4.925,4.904,4.904,4.904,4.882,4.861,4.861,4.861,4.861,4.861,4.839,4.861,4.861,4.861,4.861,4.861,4.861,4.861,4.861,4.861,4.861,4.861,4.861,4.861,4.861,4.861,4.882,4.882,4.882,4.882,4.882,4.882,4.882,4.882,4.882,4.882,4.904,4.904,4.904,4.904,4.904,4.882,4.882,4.882,4.861,4.861,4.839,4.839,4.839,4.839,4.818,4.818,4.818,4.818,4.818,4.818,4.818,4.839,4.839,4.839,4.839,4.861,4.882,4.882,4.882,4.882,4.904,4.904,4.925,4.925,4.925,4.925,4.925,4.925,4.925,4.925,4.904,4.904,4.882,4.882,4.882,4.861,4.861,4.839,4.818,4.818,4.797,4.777,4.756,4.736,4.736,4.716,4.696,4.696,4.696,4.696,4.696,4.716,4.716,4.716,4.736,4.756,4.756,4.777,4.818,4.818,4.839,4.861,4.882,4.904,4.904,4.925,4.925,4.947,4.947,4.97,4.97,4.97,4.97,4.992,4.992,5.015,5.015,5.015,5.015,5.015,5.015,5.037,5.037,5.037,5.037,5.06,5.06,5.037,5.06,5.037,5.037,5.037,5.037,5.037,5.037,5.06,5.06,5.06,5.037,5.037,5.037,5.037,5.037,5.037,5.037,5.037,5.037,5.037,5.015,5.015,4.992,4.992,4.992,4.97,4.97,4.97,4.97,4.947,4.947,4.947,4.947,4.925,4.904,4.904,4.882,4.861,4.861,4.839,4.818,4.818,4.797,4.797,4.777,4.756,4.756,4.736,4.736,4.716,4.696,4.696,4.676,4.656,4.637,4.618,4.598,4.579,4.561,4.523,4.505,4.487,4.451,4.415,4.363,4.329,4.295,4.262,4.23,4.198,4.166,4.151,4.135,4.12,4.104,4.089,4.074,4.059,4.059,4.045,4.03,4.015,4.001,3.972,3.958,3.93,3.916,3.888,3.875,3.848,3.835,3.808,3.795,3.782,3.769,3.757,3.744,3.731,3.719,3.706,3.694,3.682,3.67,3.645,3.633,3.622,3.598,3.586,3.575,3.552,3.529,3.518,3.496,3.474,3.452,3.431,3.41,3.389,3.368,3.348,3.338,3.328,3.318,3.308,3.298,3.279,3.269,3.259,3.24,3.231,3.222,3.203,3.194,3.175,3.166,3.148,3.131,3.113,3.104,3.087,3.07,3.061,3.053,3.045,3.036,3.028,3.02,3.011,3.003,2.995,2.987,2.979,2.971,2.963,2.955,2.947,2.932,2.924,2.916,2.901,2.894,2.878,2.871,2.864,2.849,2.842,2.834,2.827,2.82,2.813,2.806,2.799,2.784,2.777,2.771,2.757,2.75,2.736,2.73,2.716,2.703,2.696,2.683,2.67,2.658,2.645,2.632,2.626,2.614,2.608,2.601,2.595,2.589,2.583,2.577,2.571,2.571,2.565,2.559,2.553,2.548,2.536,2.53,2.524,2.513,2.507,2.496,2.485,2.474,2.468,2.457,2.446,2.441,2.43,2.425,2.42,2.414,2.409,2.404,2.404,2.404,2.399,2.399,2.394,2.388,2.388,2.388,2.388,2.383,2.378,2.378,2.373,2.368,2.363,2.358,2.353,2.348,2.338,2.333,2.323,2.314,2.309,2.299,2.294,2.285,2.276,2.266,2.262,2.252,2.248,2.243,2.239,2.234,2.234
4.469,4.469,4.469,4.469,4.469,4.469,4.469,4.469,4.469,4.469,4.469,4.469,4.469,4.469,4.469,4.469,4.469,4.469,4.469,4.469,4.469,4.451,4.451,4.469,4.469,4.469,4.469,4.487,4.487,4.505,4.505,4.505,4.505,4.505,4.505,4.523,4.523,4.523,4.542,4.542,4.542,4.542,4.542,4.542,4.523,4.523,4.523,4.523,4.505,4.505,4.505,4.505,4.505,4.523,4.523,4.523,4.523,4.523,4.542,4.542,4.542,4.542,4.542,4.561,4.561,4.579,4.598,4.618,4.618,4.637,4.656,4.696,4.716,4.756,4.777,4.797,4.818,4.839,4.839,4.861,4.861,4.861,4.839,4.839,4.818,4.797,4.797,4.777,4.777,4.756,4.756,4.736,4.736,4.716,4.716,4.716,4.716,4.716,4.716,4.716,4.716,4.716,4.716,4.736,4.736,4.736,4.756,4.756,4.777,4.777,4.777,4.797,4.797,4.818,4.818,4.839,4.861,4.882,4.882,4.882,4.882,4.904,4.904,4.904,4.925,4.925,4.925,4.925,4.925,4.925,4.925,4.925,4.925,4.925,4.925,4.904,4.904,4.904,4.882,4.882,4.882,4.882,4.882,4.861,4.861,4.861,4.861,4.882,4.882,4.882,4.882,4.882,4.882,4.882,4.882,4.882,4.882,4.882,4.904,4.904,4.904,4.904,4.904,4.925,4.925,4.925,4.925,4.925,4.925,4.925,4.925,4.925,4.925,4.904,4.904,4.904,4.882,4.882,4.882,4.882,4.861,4.861,4.861,4.861,4.861,4.861,4.861,4.861,4.861,4.861,4.882,4.882,4.904,4.904,4.904,4.925,4.925,4.925,4.947,4.947,4.947,4.947,4.947,4.97,4.97,4.97,4.947,4.947,4.925,4.925,4.904,4.904,4.904,4.882,4.861,4.861,4.839,4.818,4.797,4.777,4.756,4.736,4.736,4.716,4.716,4.716,4.716,4.716,4.716,4.716,4.716,4.736,4.736,4.756,4.777,4.797,4.818,4.839,4.861,4.882,4.904,4.925,4.947,4.947,4.97,4.97,4.992,4.992,5.015,5.015,5.015,5.015,5.015,5.037,5.037,5.037,5.037,5.037,5.037,5.06,5.06,5.06,5.06,5.084,5.084,5.084,5.084,5.084,5.084,5.084,5.084,5.084,5.084,5.084,5.084,5.084,5.084,5.084,5.06,5.06,5.06,5.06,5.06,5.06,5.037,5.037,5.037,5.037,5.015,4.992,4.992,4.992,4.97,4.97,4.97,4.97,4.947,4.947,4.947,4.947,4.925,4.904,4.904,4.882,4.861,4.861,4.839,4.818,4.797,4.797,4.797,4.777,4.756,4.736,4.736,4.716,4.696,4.696,4.676,4.656,4.637,4.618,4.598,4.579,4.561,4.542,4.505,4.487,4.451,4.415,4.38,4.346,4.312,4.262,4.23,4.198,4.166,4.151,4.135,4.12,4.104,4.089,4.089,4.074,4.059,4.059,4.03,4.015,4.001,3.972,3.958,3.93,3.902,3.888,3.861,3.848,3.821,3.808,3.795,3.782,3.769,3.757,3.744,3.731,3.719,3.706,3.694,3.682,3.67,3.645,3.633,3.622,3.598,3.586,3.575,3.552,3.541,3.518,3.496,3.474,3.452,3.431,3.41,3.389,3.379,3.358,3.338,3.328,3.318,3.308,3.298,3.279,3.269,3.259,3.24,3.231,3.222,3.212,3.194,3.185,3.166,3.148,3.139,3.122,3.104,3.087,3.078,3.061,3.053,3.045,3.036,3.028,3.02,3.011,3.003,2.995,2.987,2.971,2.963,2.955,2.947,2.94,2.932,2.924,2.909,2.901,2.894,2.878,2.871,2.864,2.856,2.849,2.834,2.827,2.82,2.813,2.806,2.799,2.791,2.784,2.771,2.764,2.75,2.736,2.73,2.716,2.71,2.696,2.683,2.67,2.658,2.645,2.632,2.62,2.614,2.608,2.601,2.595,2.589,2.583,2.577,2.577,2.571,2.565,2.559,2.553,2.548,2.542,2.53,2.524,2.513,2.507,2.496,2.485,2.474,2.463,2.452,2.446,2.436,2.425,2.42,2.414,2.409,2.404,2.404,2.399,2.399,2.399,2.394,2.394,2.388,2.388,2.388,2.388,2.383,2.378,2.378,2.373,2.368,2.363,2.358,2.353,2.348,2.343,2.333,2.328,2.318,2.309,2.299,2.294,2.285,2.276,2.266,2.262,2.252,2.248,2.243,2.239,2.234,2.23
4.469,4.469,4.469,4.469,4.469,4.469,4.469,4.469,4.469,4.469,4.469,4.469,4.469,4.487,4.469,4.469,4.469,4.469,4.469,4.469,4.469,4.469,4.469,4.469,4.469,4.487,4.487,4.487,4.505,4.523,4.523,4.523,4.523,4.523,4.542,4.542,4.542,4.542,4.542,4.561,4.561,4.561,4.561,4.542,4.542,4.542,4.542,4.542,4.542,4.523,4.523,4.523,4.542,4.542,4.542,4.542,4.542,4.542,4.561,4.561,4.561,4.561,4.561,4.579,4.579,4.598,4.618,4.637,4.656,4.676,4.696,4.716,4.736,4.756,4.777,4.797,4.839,4.839,4.861,4.861,4.861,4.861,4.861,4.839,4.818,4.797,4.797,4.777,4.777,4.777,4.756,4.736,4.736,4.716,4.716,4.716,4.716,4.716,4.736,4.736,4.736,4.736,4.756,4.756,4.756,4.756,4.777,4.777,4.777,4.777,4.797,4.797,4.818,4.839,4.839,4.861,4.882,4.882,4.904,4.904,4.925,4.925,4.925,4.925,4.925,4.925,4.947,4.947,4.947,4.947,4.947,4.925,4.925,4.925,4.925,4.904,4.904,4.904,4.904,4.904,4.904,4.904,4.904,4.904,4.904,4.904,4.882,4.882,4.882,4.882,4.882,4.904,4.904,4.904,4.904,4.904,4.904,4.904,4.904,4.925,4.925,4.925,4.925,4.925,4.925,4.947,4.947,4.947,4.947,4.947,4.947,4.947,4.947,4.947,4.925,4.925,4.925,4.904,4.904,4.904,4.904,4.882,4.882,4.882,4.882,4.904,4.904,4.904,4.904,4.904,4.925,4.925,4.925,4.925,4.947,4.947,4.97,4.97,4.97,4.97,4.992,4.992,4.992,4.992,4.97,4.97,4.97,4.947,4.947,4.925,4.925,4.904,4.904,4.882,4.882,4.861,4.839,4.818,4.797,4.777,4.756,4.736,4.736,4.736,4.716,4.716,4.716,4.716,4.716,4.736,4.736,4.736,4.756,4.777,4.777,4.797,4.839,4.861,4.861,4.882,4.925,4.947,4.947,4.97,4.992,5.015,5.015,5.037,5.037,5.037,5.06,5.037,5.06,5.06,5.06,5.06,5.06,5.06,5.06,5.06,5.084,5.084,5.084,5.084,5.084,5.084,5.084,5.084,5.084,5.084,5.084,5.084,5.084,5.084,5.084,5.084,5.084,5.084,5.084,5.084,5.084,5.06,5.06,5.06,5.06,5.037,5.037,5.037,5.037,5.015,5.015,4.992,4.992,4.992,4.992,4.992,4.97,4.97,4.947,4.947,4.947,4.904,4.904,4.882,4.882,4.861,4.839,4.818,4.818,4.797,4.797,4.777,4.756,4.736,4.736,4.716,4.696,4.696,4.676,4.656,4.656,4.637,4.618,4.579,4.561,4.542,4.523,4.487,4.451,4.415,4.38,4.346,4.312,4.279,4.246,4.214,4.182,4.166,4.151,4.135,4.12,4.104,4.089,4.074,4.074,4.059,4.045,4.03,4.001,3.972,3.958,3.93,3.902,3.888,3.861,3.835,3.821,3.808,3.795,3.782,3.769,3.757,3.744,3.731,3.719,3.706,3.694,3.682,3.67,3.645,3.633,3.622,3.598,3.586,3.575,3.552,3.541,3.518,3.496,3.474,3.463,3.442,3.42,3.399,3.379,3.368,3.348,3.338,3.318,3.308,3.298,3.288,3.269,3.259,3.25,3.231,3.222,3.212,3.203,3.185,3.166,3.157,3.139,3.122,3.113,3.096,3.078,3.061,3.053,3.045,3.036,3.028,3.02,3.011,3.003,2.995,2.979,2.971,2.963,2.955,2.947,2.94,2.932,2.916,2.909,2.901,2.886,2.878,2.871,2.864,2.856,2.849,2.842,2.834,2.827,2.82,2.813,2.806,2.791,2.784,2.777,2.764,2.75,2.743,2.73,2.723,2.71,2.696,2.683,2.67,2.658,2.645,2.632,2.62,2.614,2.608,2.601,2.595,2.589,2.583,2.577,2.577,2.571,2.565,2.559,2.553,2.548,2.542,2.536,2.524,2.519,2.507,2.496,2.485,2.474,2.463,2.452,2.441,2.436,2.425,2.42,2.414,2.409,2.404,2.404,2.399,2.399,2.399,2.394,2.388,2.388,2.388,2.383,2.383,2.383,2.378,2.378,2.373,2.368,2.363,2.363,2.353,2.348,2.343,2.338,2.328,2.318,2.309,2.304,2.294,2.285,2.276,2.271,2.262,2.257,2.248,2.243,2.239,2.234,2.23
4.469,4.469,4.469,4.469,4.469,4.469,4.469,4.469,4.469,4.469,4.469,4.469,4.487,4.487,4.469,4.469,4.469,4.469,4.487,4.469,4.469,4.469,4.469,4.469,4.487,4.487,4.505,4.505,4.505,4.523,4.542,4.542,4.542,4.542,4.561,4.561,4.561,4.561,4.561,4.561,4.579,4.561,4.561,4.561,4.561,4.561,4.561,4.561,4.561,4.542,4.542,4.561,4.561,4.561,4.561,4.561,4.579,4.579,4.579,4.579,4.579,4.579,4.579,4.598,4.598,4.618,4.637,4.637,4.656,4.676,4.716,4.736,4.756,4.777,4.797,4.818,4.839,4.839,4.861,4.861,4.861,4.861,4.861,4.839,4.818,4.797,4.797,4.777,4.777,4.756,4.756,4.756,4.736,4.736,4.736,4.736,4.756,4.756,4.756,4.756,4.756,4.756,4.756,4.777,4.777,4.777,4.777,4.797,4.797,4.818,4.818,4.818,4.839,4.839,4.861,4.882,4.882,4.904,4.925,4.925,4.925,4.925,4.947,4.947,4.947,4.947,4.947,4.947,4.947,4.947,4.947,4.947,4.925,4.925,4.925,4.925,4.925,4.904,4.904,4.904,4.904,4.904,4.904,4.904,4.904,4.904,4.882,4.904,4.882,4.904,4.904,4.904,4.904,4.904,4.904,4.904,4.904,4.904,4.925,4.925,4.925,4.947,4.947,4.947,4.947,4.947,4.947,4.97,4.97,4.97,4.97,4.97,4.947,4.947,4.947,4.947,4.925,4.925,4.925,4.925,4.925,4.925,4.925,4.925,4.925,4.925,4.925,4.925,4.925,4.947,4.947,4.947,4.97,4.97,4.992,4.992,4.992,4.992,5.015,5.015,5.015,5.015,5.015,5.015,5.015,4.992,4.992,4.992,4.97,4.947,4.947,4.925,4.925,4.882,4.882,4.861,4.861,4.839,4.818,4.777,4.777,4.756,4.736,4.736,4.736,4.716,4.716,4.716,4.736,4.736,4.736,4.756,4.756,4.777,4.797,4.818,4.839,4.839,4.861,4.904,4.925,4.947,4.97,4.992,4.992,5.015,5.037,5.06,5.06,5.06,5.06,5.06,5.06,5.084,5.06,5.06,5.084,5.084,5.084,5.084,5.084,5.084,5.084,5.084,5.107,5.107,5.107,5.107,5.107,5.107,5.131,5.131,5.131,5.131,5.131,5.107,5.107,5.107,5.084,5.084,5.084,5.084,5.084,5.06,5.06,5.06,5.037,5.037,5.037,5.037,5.015,5.015,5.015,4.992,4.992,4.992,4.992,4.992,4.97,4.947,4.947,4.925,4.904,4.904,4.882,4.861,4.839,4.818,4.818,4.797,4.797,4.777,4.756,4.736,4.736,4.716,4.696,4.696,4.676,4.656,4.656,4.637,4.618,4.598,4.579,4.542,4.523,4.505,4.469,4.433,4.398,4.346,4.312,4.279,4.246,4.214,4.182,4.166,4.151,4.135,4.12,4.104,4.104,4.089,4.074,4.059,4.045,4.03,4.001,3.972,3.958,3.93,3.902,3.875,3.848,3.835,3.821,3.808,3.795,3.782,3.769,3.757,3.744,3.731,3.719,3.706,3.694,3.682,3.67,3.645,3.633,3.622,3.598,3.586,3.575,3.563,3.541,3.518,3.507,3.485,3.463,3.442,3.42,3.41,3.389,3.379,3.358,3.338,3.328,3.308,3.298,3.288,3.279,3.259,3.25,3.24,3.231,3.212,3.203,3.185,3.175,3.157,3.139,3.131,3.113,3.096,3.078,3.061,3.053,3.045,3.036,3.028,3.02,3.011,2.995,2.987,2.979,2.971,2.963,2.955,2.947,2.932,2.924,2.916,2.909,2.894,2.886,2.878,2.871,2.864,2.856,2.849,2.842,2.834,2.827,2.82,2.813,2.806,2.799,2.784,2.777,2.764,2.757,2.743,2.73,2.723,2.71,2.696,2.683,2.67,2.658,2.645,2.632,2.62,2.614,2.608,2.601,2.595,2.589,2.583,2.583,2.577,2.571,2.565,2.565,2.559,2.548,2.542,2.536,2.53,2.519,2.507,2.496,2.485,2.474,2.463,2.452,2.441,2.436,2.425,2.42,2.414,2.409,2.404,2.399,2.399,2.399,2.394,2.394,2.388,2.388,2.383,2.383,2.383,2.383,2.378,2.373,2.373,2.368,2.363,2.358,2.358,2.353,2.343,2.338,2.333,2.323,2.314,2.304,2.294,2.285,2.28,2.271,2.262,2.257,2.248,2.243,2.239,2.234,2.23
