3.222,3.222,3.222,3.222,3.222,3.222,3.231,3.231,3.231,3.231,3.231,3.222,3.222,3.222,3.212,3.212,3.212,3.212,3.212,3.222,3.231,3.231,3.231,3.24,3.24,3.24,3.24,3.24,3.25,3.25,3.25,3.25,3.24,3.231,3.231,3.231,3.222,3.222,3.212,3.212,3.212,3.203,3.203,3.212,3.212,3.212,3.212,3.222,3.231,3.231,3.24,3.25,3.25,3.259,3.259,3.259,3.269,3.269,3.269,3.269,3.269,3.269,3.269,3.259,3.259,3.259,3.25,3.25,3.259,3.259,3.259,3.259,3.259,3.259,3.259,3.269,3.269,3.279,3.279,3.279,3.279,3.288,3.288,3.298,3.298,3.298,3.298,3.298,3.298,3.298,3.298,3.308,3.308,3.308,3.308,3.308,3.318,3.318,3.318,3.318,3.328,3.328,3.328,3.328,3.328,3.328,3.328,3.338,3.338,3.348,3.348,3.348,3.348,3.348,3.358,3.358,3.358,3.358,3.358,3.358,3.368,3.368,3.368,3.379,3.379,3.379,3.389,3.389,3.389,3.399,3.399,3.399,3.41,3.41,3.41,3.41,3.42,3.42,3.41,3.41,3.41,3.399,3.399,3.389,3.389,3.379,3.379,3.368,3.368,3.368,3.368,3.358,3.358,3.358,3.358,3.358,3.368,3.368,3.368,3.368,3.379,3.379,3.379,3.389,3.389,3.389,3.389,3.389,3.399,3.399,3.389,3.389,3.389,3.389,3.399,3.399,3.41,3.41,3.42,3.42,3.431,3.431,3.442,3.442,3.442,3.442,3.442,3.442,3.442,3.452,3.452,3.452,3.442,3.442,3.442,3.442,3.442,3.431,3.431,3.42,3.42,3.42,3.41,3.41,3.41,3.41,3.41,3.41,3.41,3.41,3.41,3.41,3.41,3.41,3.41,3.41,3.41,3.41,3.41,3.41,3.41,3.41,3.41,3.42,3.42,3.42,3.42,3.42,3.42,3.42,3.42,3.42,3.41,3.41,3.41,3.41,3.41,3.41,3.41,3.399,3.399,3.399,3.389,3.389,3.389,3.389,3.399,3.399,3.399,3.41,3.42,3.431,3.431,3.442,3.442,3.442,3.452,3.442,3.442,3.442,3.442,3.442,3.442,3.442,3.442,3.442,3.442,3.442,3.442,3.442,3.442,3.442,3.442,3.452,3.463,3.463,3.463,3.463,3.474,3.474,3.485,3.485,3.485,3.485,3.485,3.474,3.474,3.474,3.463,3.463,3.463,3.452,3.452,3.452,3.463,3.463,3.463,3.463,3.474,3.485,3.485,3.496,3.496,3.496,3.507,3.518,3.518,3.507,3.507,3.507,3.507,3.507,3.507,3.507,3.507,3.518,3.518,3.529,3.529,3.529,3.529,3.529,3.529,3.529,3.529,3.529,3.518,3.518,3.507,3.496,3.485,3.485,3.474,3.474,3.463,3.463,3.463,3.463,3.463,3.463,3.463,3.463,3.463,3.474,3.474,3.474,3.474,3.485,3.485,3.485,3.485,3.485,3.485,3.485,3.485,3.485,3.485,3.485,3.485,3.485,3.496,3.496,3.496,3.507,3.507,3.518,3.518,3.518,3.518,3.518,3.518,3.518,3.507,3.496,3.496,3.485,3.474,3.474,3.474,3.463,3.463,3.463,3.463,3.452,3.452,3.442,3.431,3.431,3.42,3.41,3.399,3.389,3.389,3.379,3.368,3.358,3.358,3.348,3.328,3.318,3.308,3.298,3.288,3.279,3.269,3.259,3.25,3.24,3.231,3.222,3.203,3.194,3.185,3.166,3.157,3.139,3.131,3.122,3.104,3.096,3.078,3.07,3.053,3.045,3.036,3.02,3.011,3.003,2.995,2.995,2.979,2.979,2.971,2.963,2.955,2.947,2.94,2.932,2.924,2.909,2.894,2.886,2.864,2.849,2.842,2.82,2.813,2.799,2.791,2.784,2.777,2.771,2.764,2.757,2.75,2.736,2.736,2.73,2.716,2.71,2.703,2.69,2.683,2.67,2.664,2.658,2.645,2.639,2.632,2.626,2.614,2.608,2.601,2.595,2.583,2.577,2.571,2.565,2.559,2.553,2.548,2.542,2.536,2.53,2.524,2.519,2.513,2.507,2.496,2.49,2.485,2.474,2.468,2.457,2.452,2.441,2.436,2.425,2.42,2.414,2.409,2.404,2.399,2.394,2.388,2.383,2.378,2.373,2.368,2.363,2.358,2.348,2.343
3.222,3.222,3.222,3.222,3.231,3.231,3.231,3.231,3.231,3.231,3.231,3.222,3.222,3.222,3.222,3.212,3.212,3.212,3.222,3.222,3.231,3.231,3.231,3.24,3.24,3.24,3.24,3.24,3.24,3.24,3.24,3.24,3.24,3.231,3.231,3.222,3.222,3.222,3.212,3.212,3.212,3.203,3.203,3.212,3.212,3.212,3.222,3.222,3.231,3.231,3.24,3.25,3.25,3.259,3.259,3.259,3.269,3.269,3.269,3.269,3.269,3.259,3.259,3.259,3.259,3.25,3.25,3.25,3.259,3.259,3.259,3.259,3.259,3.259,3.259,3.269,3.269,3.279,3.279,3.279,3.288,3.288,3.298,3.298,3.298,3.298,3.298,3.298,3.298,3.298,3.298,3.308,3.308,3.308,3.308,3.308,3.318,3.318,3.318,3.328,3.328,3.328,3.328,3.328,3.328,3.328,3.328,3.328,3.338,3.338,3.338,3.348,3.348,3.348,3.348,3.358,3.358,3.358,3.358,3.358,3.368,3.368,3.368,3.379,3.379,3.379,3.379,3.389,3.389,3.389,3.399,3.399,3.399,3.41,3.41,3.41,3.41,3.41,3.41,3.41,3.41,3.399,3.399,3.389,3.389,3.379,3.379,3.379,3.368,3.368,3.368,3.358,3.358,3.358,3.358,3.368,3.368,3.368,3.368,3.379,3.379,3.379,3.379,3.379,3.389,3.389,3.389,3.389,3.389,3.399,3.389,3.389,3.389,3.389,3.399,3.399,3.41,3.41,3.42,3.42,3.431,3.431,3.442,3.442,3.442,3.442,3.442,3.442,3.442,3.452,3.452,3.452,3.442,3.442,3.442,3.442,3.431,3.431,3.431,3.42,3.42,3.41,3.41,3.41,3.41,3.41,3.41,3.41,3.399,3.399,3.41,3.41,3.41,3.41,3.41,3.41,3.41,3.41,3.41,3.41,3.41,3.42,3.42,3.42,3.431,3.431,3.431,3.431,3.431,3.431,3.42,3.42,3.42,3.41,3.41,3.41,3.41,3.41,3.41,3.41,3.399,3.399,3.399,3.389,3.389,3.399,3.399,3.399,3.399,3.41,3.41,3.42,3.431,3.431,3.442,3.442,3.442,3.442,3.442,3.442,3.442,3.442,3.442,3.442,3.442,3.442,3.442,3.452,3.452,3.442,3.442,3.442,3.452,3.452,3.463,3.463,3.463,3.474,3.485,3.485,3.485,3.485,3.485,3.485,3.485,3.485,3.485,3.474,3.474,3.463,3.463,3.452,3.452,3.452,3.463,3.463,3.463,3.463,3.474,3.485,3.485,3.496,3.496,3.507,3.507,3.518,3.518,3.518,3.507,3.507,3.507,3.507,3.507,3.507,3.507,3.507,3.507,3.518,3.529,3.529,3.529,3.529,3.529,3.529,3.529,3.529,3.518,3.518,3.507,3.507,3.496,3.485,3.485,3.474,3.463,3.463,3.463,3.463,3.463,3.463,3.463,3.463,3.463,3.463,3.474,3.474,3.474,3.474,3.474,3.485,3.474,3.474,3.485,3.485,3.474,3.474,3.485,3.485,3.485,3.485,3.485,3.485,3.485,3.496,3.507,3.507,3.507,3.507,3.518,3.518,3.518,3.518,3.507,3.496,3.496,3.485,3.485,3.474,3.474,3.463,3.463,3.463,3.463,3.463,3.452,3.442,3.442,3.431,3.42,3.41,3.41,3.399,3.389,3.379,3.368,3.358,3.348,3.338,3.328,3.318,3.308,3.298,3.288,3.279,3.269,3.259,3.25,3.24,3.231,3.212,3.203,3.194,3.185,3.166,3.157,3.139,3.131,3.122,3.104,3.096,3.078,3.07,3.053,3.045,3.036,3.02,3.011,3.003,2.995,2.995,2.987,2.979,2.971,2.963,2.963,2.947,2.947,2.932,2.924,2.909,2.894,2.878,2.864,2.849,2.834,2.82,2.806,2.799,2.784,2.777,2.771,2.764,2.757,2.75,2.743,2.736,2.73,2.723,2.716,2.71,2.696,2.69,2.677,2.67,2.664,2.651,2.645,2.639,2.626,2.62,2.614,2.608,2.595,2.589,2.583,2.577,2.571,2.565,2.559,2.553,2.548,2.542,2.536,2.53,2.524,2.524,2.519,2.507,2.502,2.496,2.49,2.485,2.474,2.463,2.457,2.446,2.441,2.43,2.425,2.42,2.414,2.404,2.404,2.399,2.388,2.383,2.378,2.373,2.368,2.363,2.358,2.353,2.348
3.231,3.231,3.231,3.231,3.231,3.231,3.231,3.231,3.231,3.231,3.231,3.222,3.222,3.222,3.222,3.222,3.212,3.212,3.212,3.222,3.231,3.231,3.231,3.231,3.24,3.24,3.24,3.24,3.24,3.24,3.24,3.24,3.231,3.231,3.231,3.222,3.222,3.222,3.222,3.212,3.212,3.212,3.212,3.212,3.212,3.222,3.222,3.222,3.231,3.24,3.24,3.25,3.25,3.259,3.259,3.259,3.269,3.269,3.269,3.269,3.259,3.259,3.259,3.25,3.25,3.25,3.25,3.25,3.25,3.25,3.259,3.259,3.259,3.259,3.259,3.269,3.269,3.279,3.279,3.279,3.279,3.288,3.288,3.298,3.298,3.298,3.298,3.298,3.298,3.298,3.298,3.308,3.308,3.308,3.308,3.318,3.318,3.318,3.318,3.328,3.328,3.328,3.328,3.328,3.328,3.328,3.328,3.328,3.338,3.338,3.338,3.338,3.348,3.348,3.348,3.358,3.358,3.358,3.358,3.358,3.368,3.368,3.368,3.379,3.379,3.379,3.379,3.389,3.389,3.389,3.389,3.399,3.399,3.399,3.41,3.41,3.41,3.41,3.41,3.41,3.41,3.399,3.389,3.389,3.389,3.389,3.379,3.379,3.368,3.368,3.368,3.368,3.358,3.358,3.368,3.368,3.368,3.368,3.368,3.379,3.379,3.379,3.379,3.379,3.379,3.389,3.389,3.389,3.389,3.399,3.389,3.389,3.389,3.389,3.399,3.399,3.41,3.41,3.42,3.42,3.431,3.431,3.442,3.442,3.442,3.442,3.442,3.442,3.442,3.452,3.452,3.442,3.442,3.442,3.442,3.431,3.431,3.431,3.42,3.42,3.41,3.41,3.41,3.41,3.41,3.399,3.399,3.399,3.399,3.399,3.399,3.399,3.399,3.41,3.41,3.41,3.41,3.41,3.41,3.42,3.42,3.42,3.42,3.431,3.431,3.431,3.431,3.431,3.431,3.431,3.431,3.431,3.431,3.42,3.42,3.42,3.42,3.42,3.41,3.41,3.41,3.41,3.41,3.399,3.399,3.399,3.399,3.399,3.399,3.41,3.42,3.42,3.42,3.431,3.442,3.442,3.442,3.442,3.442,3.442,3.442,3.442,3.442,3.452,3.452,3.452,3.452,3.452,3.452,3.452,3.452,3.452,3.452,3.463,3.463,3.463,3.474,3.474,3.485,3.485,3.485,3.496,3.496,3.485,3.485,3.485,3.485,3.485,3.474,3.463,3.463,3.463,3.463,3.452,3.463,3.463,3.463,3.474,3.485,3.485,3.496,3.496,3.507,3.507,3.518,3.518,3.518,3.518,3.507,3.507,3.507,3.496,3.496,3.496,3.496,3.496,3.507,3.518,3.518,3.529,3.529,3.529,3.529,3.529,3.541,3.529,3.529,3.518,3.507,3.507,3.496,3.496,3.485,3.485,3.474,3.463,3.463,3.463,3.463,3.463,3.463,3.463,3.463,3.463,3.474,3.474,3.474,3.474,3.474,3.474,3.474,3.474,3.485,3.485,3.474,3.474,3.485,3.474,3.485,3.474,3.485,3.485,3.485,3.485,3.485,3.496,3.496,3.507,3.507,3.507,3.507,3.507,3.507,3.496,3.496,3.496,3.485,3.485,3.474,3.474,3.463,3.463,3.463,3.463,3.452,3.442,3.442,3.431,3.42,3.42,3.41,3.399,3.389,3.379,3.368,3.368,3.348,3.338,3.328,3.318,3.308,3.298,3.288,3.279,3.259,3.25,3.25,3.231,3.222,3.212,3.203,3.194,3.185,3.166,3.157,3.139,3.131,3.113,3.104,3.087,3.078,3.061,3.053,3.045,3.028,3.02,3.011,3.003,3.003,2.995,2.987,2.979,2.971,2.971,2.963,2.955,2.947,2.94,2.924,2.909,2.894,2.878,2.864,2.849,2.834,2.82,2.806,2.791,2.784,2.777,2.771,2.764,2.757,2.75,2.743,2.736,2.73,2.723,2.716,2.71,2.696,2.69,2.677,2.67,2.658,2.651,2.645,2.632,2.626,2.62,2.614,2.601,2.595,2.589,2.583,2.577,2.571,2.565,2.559,2.553,2.548,2.542,2.542,2.536,2.53,2.524,2.519,2.513,2.507,2.502,2.496,2.485,2.479,2.468,2.463,2.452,2.446,2.436,2.43,2.42,2.414,2.409,2.404,2.399,2.394,2.388,2.383,2.378,2.373,2.363,2.358,2.353,2.348
3.231,3.24,3.24,3.231,3.24,3.24,3.24,3.24,3.24,3.24,3.231,3.231,3.222,3.222,3.222,3.222,3.222,3.212,3.212,3.222,3.222,3.222,3.231,3.231,3.231,3.231,3.24,3.24,3.231,3.24,3.24,3.231,3.231,3.231,3.222,3.222,3.222,3.222,3.222,3.212,3.212,3.212,3.212,3.212,3.212,3.222,3.222,3.222,3.231,3.231,3.24,3.24,3.25,3.25,3.259,3.259,3.259,3.259,3.259,3.259,3.259,3.25,3.25,3.25,3.24,3.24,3.24,3.25,3.25,3.25,3.25,3.259,3.259,3.259,3.259,3.269,3.269,3.269,3.279,3.279,3.279,3.279,3.288,3.288,3.288,3.288,3.288,3.288,3.298,3.298,3.298,3.298,3.298,3.298,3.308,3.308,3.318,3.318,3.318,3.328,3.328,3.328,3.328,3.328,3.328,3.328,3.328,3.328,3.328,3.328,3.328,3.328,3.338,3.338,3.338,3.338,3.348,3.348,3.348,3.358,3.358,3.368,3.368,3.368,3.379,3.379,3.379,3.379,3.379,3.379,3.389,3.389,3.399,3.399,3.399,3.399,3.41,3.41,3.41,3.41,3.399,3.389,3.389,3.389,3.389,3.379,3.379,3.368,3.368,3.368,3.368,3.368,3.368,3.368,3.368,3.368,3.368,3.368,3.379,3.379,3.379,3.379,3.379,3.379,3.379,3.389,3.389,3.389,3.389,3.399,3.389,3.389,3.389,3.389,3.399,3.399,3.41,3.41,3.42,3.42,3.42,3.431,3.442,3.442,3.442,3.442,3.452,3.442,3.442,3.452,3.442,3.442,3.442,3.442,3.431,3.431,3.431,3.431,3.42,3.42,3.41,3.41,3.41,3.41,3.41,3.399,3.399,3.399,3.399,3.399,3.399,3.399,3.399,3.399,3.399,3.41,3.41,3.41,3.42,3.42,3.42,3.431,3.431,3.431,3.431,3.442,3.442,3.442,3.442,3.431,3.431,3.431,3.431,3.431,3.431,3.431,3.431,3.431,3.431,3.431,3.42,3.42,3.41,3.41,3.41,3.41,3.399,3.399,3.399,3.41,3.42,3.42,3.431,3.431,3.442,3.442,3.442,3.442,3.442,3.442,3.442,3.442,3.452,3.452,3.452,3.452,3.463,3.463,3.463,3.463,3.463,3.463,3.463,3.463,3.474,3.474,3.485,3.485,3.485,3.485,3.496,3.496,3.496,3.496,3.496,3.496,3.485,3.485,3.485,3.474,3.474,3.463,3.463,3.463,3.463,3.463,3.474,3.485,3.485,3.485,3.496,3.507,3.507,3.518,3.518,3.518,3.518,3.507,3.507,3.507,3.496,3.496,3.485,3.485,3.485,3.496,3.507,3.507,3.518,3.518,3.529,3.529,3.529,3.541,3.541,3.541,3.529,3.529,3.518,3.507,3.507,3.496,3.485,3.485,3.474,3.474,3.463,3.463,3.463,3.463,3.463,3.463,3.463,3.463,3.474,3.474,3.474,3.474,3.474,3.485,3.485,3.485,3.485,3.485,3.474,3.474,3.485,3.474,3.474,3.474,3.474,3.474,3.474,3.474,3.485,3.485,3.485,3.496,3.496,3.496,3.496,3.507,3.496,3.496,3.496,3.496,3.496,3.485,3.485,3.474,3.474,3.463,3.463,3.463,3.452,3.442,3.442,3.431,3.42,3.42,3.41,3.399,3.389,3.379,3.368,3.358,3.348,3.338,3.328,3.318,3.308,3.298,3.279,3.269,3.259,3.25,3.24,3.231,3.222,3.212,3.203,3.194,3.175,3.166,3.148,3.139,3.122,3.113,3.104,3.087,3.078,3.061,3.053,3.036,3.028,3.02,3.011,3.003,2.995,2.995,2.987,2.979,2.971,2.971,2.963,2.955,2.947,2.94,2.924,2.909,2.894,2.878,2.856,2.842,2.827,2.82,2.806,2.791,2.784,2.777,2.771,2.764,2.757,2.75,2.743,2.736,2.73,2.723,2.716,2.71,2.696,2.69,2.677,2.67,2.658,2.651,2.645,2.632,2.626,2.62,2.608,2.601,2.595,2.589,2.583,2.577,2.571,2.565,2.559,2.553,2.548,2.542,2.542,2.536,2.53,2.524,2.519,2.513,2.507,2.502,2.496,2.49,2.479,2.474,2.463,2.457,2.446,2.441,2.43,2.425,2.414,2.409,2.404,2.399,2.394,2.388,2.383,2.378,2.373,2.368,2.363,2.358,2.353
3.24,3.24,3.24,3.24,3.24,3.24,3.24,3.24,3.24,3.25,3.24,3.231,3.231,3.222,3.222,3.222,3.222,3.212,3.212,3.212,3.212,3.222,3.222,3.222,3.222,3.231,3.231,3.231,3.231,3.231,3.231,3.231,3.231,3.231,3.231,3.222,3.222,3.222,3.222,3.222,3.222,3.222,3.222,3.222,3.222,3.222,3.222,3.222,3.231,3.231,3.231,3.24,3.24,3.25,3.25,3.25,3.259,3.259,3.259,3.25,3.25,3.25,3.24,3.24,3.24,3.24,3.24,3.24,3.24,3.25,3.25,3.25,3.259,3.259,3.259,3.259,3.269,3.269,3.269,3.269,3.279,3.279,3.279,3.288,3.288,3.288,3.288,3.288,3.288,3.288,3.298,3.298,3.298,3.298,3.308,3.308,3.318,3.318,3.318,3.328,3.328,3.318,3.318,3.318,3.318,3.318,3.318,3.318,3.318,3.318,3.318,3.328,3.328,3.328,3.338,3.338,3.338,3.348,3.348,3.358,3.358,3.358,3.368,3.368,3.368,3.368,3.379,3.379,3.379,3.379,3.379,3.379,3.389,3.389,3.389,3.399,3.399,3.399,3.399,3.399,3.389,3.389,3.389,3.389,3.379,3.379,3.368,3.368,3.368,3.368,3.368,3.368,3.368,3.368,3.368,3.379,3.379,3.379,3.379,3.379,3.379,3.379,3.379,3.379,3.379,3.389,3.389,3.389,3.389,3.389,3.389,3.389,3.389,3.389,3.399,3.399,3.41,3.41,3.42,3.42,3.42,3.431,3.431,3.442,3.442,3.442,3.442,3.442,3.442,3.442,3.442,3.442,3.442,3.431,3.431,3.431,3.431,3.42,3.42,3.42,3.42,3.42,3.41,3.41,3.41,3.41,3.41,3.41,3.399,3.399,3.399,3.399,3.399,3.399,3.399,3.399,3.41,3.41,3.42,3.42,3.42,3.431,3.431,3.442,3.442,3.442,3.442,3.442,3.442,3.442,3.442,3.431,3.431,3.431,3.431,3.431,3.431,3.431,3.431,3.431,3.431,3.431,3.431,3.42,3.42,3.42,3.42,3.41,3.41,3.42,3.42,3.42,3.431,3.431,3.442,3.442,3.442,3.442,3.442,3.442,3.442,3.442,3.452,3.452,3.452,3.463,3.463,3.463,3.463,3.463,3.463,3.463,3.463,3.474,3.474,3.485,3.485,3.485,3.485,3.496,3.496,3.507,3.507,3.496,3.496,3.496,3.496,3.485,3.485,3.485,3.474,3.474,3.474,3.474,3.474,3.485,3.485,3.485,3.485,3.496,3.507,3.507,3.507,3.518,3.518,3.518,3.518,3.507,3.507,3.496,3.496,3.485,3.485,3.485,3.485,3.485,3.496,3.507,3.507,3.518,3.529,3.529,3.529,3.529,3.541,3.541,3.529,3.529,3.529,3.518,3.507,3.507,3.496,3.485,3.485,3.474,3.463,3.463,3.463,3.463,3.463,3.463,3.463,3.463,3.474,3.474,3.474,3.474,3.485,3.485,3.485,3.485,3.485,3.485,3.485,3.474,3.485,3.474,3.474,3.474,3.463,3.463,3.463,3.463,3.474,3.474,3.485,3.485,3.496,3.496,3.496,3.496,3.496,3.496,3.496,3.496,3.496,3.496,3.485,3.485,3.474,3.474,3.463,3.463,3.452,3.442,3.442,3.431,3.431,3.42,3.41,3.399,3.389,3.379,3.368,3.358,3.348,3.338,3.328,3.318,3.308,3.288,3.279,3.269,3.259,3.25,3.24,3.231,3.222,3.212,3.194,3.185,3.175,3.157,3.148,3.139,3.122,3.113,3.096,3.087,3.07,3.061,3.045,3.036,3.02,3.011,3.003,3.003,2.995,2.995,2.987,2.979,2.971,2.971,2.963,2.955,2.947,2.932,2.924,2.909,2.894,2.878,2.856,2.842,2.827,2.813,2.806,2.791,2.784,2.777,2.771,2.764,2.757,2.75,2.743,2.736,2.73,2.723,2.716,2.71,2.703,2.69,2.683,2.67,2.664,2.658,2.645,2.632,2.626,2.614,2.608,2.601,2.595,2.589,2.583,2.571,2.571,2.565,2.559,2.553,2.548,2.548,2.542,2.536,2.53,2.53,2.519,2.513,2.513,2.507,2.496,2.49,2.485,2.474,2.468,2.457,2.452,2.446,2.436,2.43,2.42,2.414,2.409,2.404,2.399,2.394,2.383,2.378,2.373,2.368,2.363,2.358,2.353
3.24,3.24,3.24,3.25,3.25,3.25,3.25,3.25,3.25,3.25,3.25,3.24,3.231,3.231,3.222,3.222,3.222,3.222,3.212,3.212,3.212,3.212,3.212,3.212,3.222,3.222,3.222,3.222,3.222,3.222,3.231,3.231,3.231,3.231,3.231,3.222,3.222,3.222,3.222,3.222,3.222,3.222,3.222,3.222,3.222,3.222,3.222,3.222,3.222,3.222,3.231,3.231,3.24,3.24,3.24,3.25,3.25,3.25,3.25,3.25,3.24,3.24,3.231,3.231,3.231,3.231,3.231,3.231,3.24,3.24,3.25,3.25,3.25,3.25,3.259,3.259,3.259,3.259,3.269,3.269,3.269,3.269,3.279,3.279,3.279,3.279,3.279,3.279,3.279,3.279,3.288,3.288,3.288,3.288,3.298,3.308,3.318,3.308,3.318,3.318,3.318,3.318,3.318,3.318,3.308,3.308,3.318,3.318,3.318,3.318,3.318,3.318,3.328,3.328,3.338,3.328,3.338,3.338,3.348,3.348,3.358,3.358,3.358,3.358,3.358,3.358,3.368,3.368,3.368,3.368,3.368,3.379,3.379,3.379,3.379,3.389,3.389,3.389,3.389,3.389,3.379,3.379,3.379,3.379,3.379,3.368,3.368,3.368,3.368,3.368,3.368,3.368,3.368,3.368,3.379,3.379,3.379,3.379,3.379,3.379,3.379,3.379,3.379,3.379,3.379,3.379,3.379,3.379,3.379,3.389,3.389,3.389,3.389,3.389,3.399,3.399,3.41,3.41,3.41,3.42,3.42,3.431,3.431,3.442,3.442,3.442,3.442,3.442,3.442,3.442,3.442,3.442,3.431,3.431,3.431,3.431,3.42,3.42,3.42,3.42,3.42,3.42,3.41,3.41,3.41,3.41,3.41,3.41,3.41,3.399,3.399,3.399,3.399,3.399,3.399,3.399,3.41,3.42,3.42,3.42,3.42,3.431,3.431,3.442,3.442,3.442,3.442,3.442,3.442,3.442,3.442,3.442,3.442,3.431,3.431,3.442,3.442,3.442,3.442,3.442,3.442,3.442,3.442,3.442,3.431,3.431,3.42,3.42,3.42,3.42,3.431,3.431,3.442,3.442,3.442,3.442,3.452,3.442,3.442,3.442,3.442,3.452,3.452,3.452,3.463,3.463,3.463,3.474,3.474,3.474,3.474,3.474,3.474,3.485,3.485,3.485,3.485,3.485,3.485,3.496,3.496,3.507,3.507,3.507,3.496,3.496,3.496,3.496,3.485,3.485,3.485,3.485,3.485,3.485,3.485,3.485,3.485,3.496,3.507,3.507,3.507,3.507,3.518,3.518,3.518,3.518,3.518,3.507,3.507,3.496,3.485,3.485,3.485,3.485,3.485,3.485,3.485,3.496,3.507,3.507,3.518,3.529,3.529,3.529,3.541,3.541,3.529,3.529,3.529,3.518,3.507,3.507,3.496,3.485,3.485,3.474,3.474,3.463,3.463,3.463,3.463,3.463,3.463,3.463,3.474,3.474,3.485,3.485,3.485,3.485,3.485,3.485,3.485,3.485,3.485,3.485,3.485,3.485,3.474,3.474,3.463,3.463,3.463,3.463,3.463,3.463,3.474,3.485,3.485,3.496,3.496,3.496,3.496,3.507,3.507,3.507,3.507,3.496,3.485,3.485,3.485,3.474,3.474,3.463,3.463,3.442,3.442,3.431,3.431,3.42,3.41,3.399,3.389,3.379,3.379,3.358,3.348,3.338,3.328,3.318,3.308,3.288,3.279,3.269,3.259,3.25,3.24,3.231,3.222,3.203,3.194,3.185,3.175,3.157,3.148,3.131,3.122,3.104,3.096,3.078,3.07,3.053,3.045,3.028,3.02,3.011,3.003,3.003,2.995,2.987,2.987,2.979,2.971,2.963,2.963,2.955,2.947,2.932,2.924,2.909,2.886,2.871,2.856,2.842,2.827,2.813,2.806,2.791,2.784,2.777,2.771,2.764,2.757,2.75,2.743,2.736,2.73,2.723,2.716,2.71,2.703,2.696,2.69,2.677,2.67,2.658,2.651,2.639,2.632,2.62,2.614,2.601,2.595,2.589,2.583,2.577,2.571,2.565,2.559,2.553,2.548,2.542,2.542,2.536,2.53,2.53,2.519,2.513,2.507,2.507,2.502,2.49,2.485,2.479,2.468,2.463,2.452,2.446,2.436,2.43,2.42,2.414,2.409,2.404,2.399,2.394,2.388,2.383,2.378,2.373,2.368,2.363,2.358
3.24,3.24,3.25,3.25,3.25,3.25,3.25,3.25,3.25,3.25,3.25,3.25,3.24,3.231,3.231,3.222,3.222,3.222,3.212,3.212,3.212,3.212,3.212,3.212,3.212,3.212,3.222,3.222,3.222,3.222,3.222,3.222,3.231,3.231,3.231,3.231,3.231,3.231,3.231,3.231,3.231,3.222,3.222,3.222,3.222,3.222,3.222,3.222,3.222,3.222,3.222,3.231,3.231,3.231,3.24,3.24,3.24,3.24,3.24,3.24,3.24,3.231,3.222,3.222,3.222,3.231,3.231,3.231,3.231,3.24,3.24,3.24,3.25,3.25,3.25,3.25,3.25,3.259,3.259,3.259,3.269,3.269,3.269,3.269,3.269,3.269,3.269,3.269,3.269,3.269,3.279,3.279,3.288,3.288,3.298,3.298,3.308,3.308,3.308,3.318,3.318,3.318,3.308,3.308,3.298,3.298,3.308,3.308,3.308,3.308,3.308,3.308,3.318,3.318,3.328,3.318,3.328,3.328,3.338,3.338,3.348,3.348,3.348,3.358,3.358,3.358,3.358,3.358,3.358,3.358,3.368,3.368,3.368,3.368,3.368,3.368,3.379,3.379,3.379,3.368,3.368,3.368,3.368,3.368,3.368,3.368,3.368,3.368,3.368,3.368,3.368,3.368,3.368,3.379,3.379,3.379,3.379,3.379,3.379,3.379,3.379,3.379,3.379,3.379,3.379,3.379,3.379,3.379,3.389,3.389,3.389,3.389,3.389,3.389,3.399,3.399,3.41,3.41,3.41,3.42,3.42,3.431,3.431,3.442,3.442,3.442,3.442,3.442,3.442,3.442,3.442,3.431,3.431,3.431,3.431,3.42,3.42,3.42,3.42,3.42,3.42,3.42,3.42,3.41,3.41,3.41,3.41,3.41,3.41,3.399,3.399,3.399,3.399,3.399,3.399,3.399,3.41,3.42,3.42,3.42,3.42,3.431,3.442,3.442,3.442,3.442,3.442,3.442,3.442,3.442,3.442,3.442,3.442,3.442,3.442,3.442,3.442,3.452,3.452,3.452,3.452,3.452,3.452,3.442,3.442,3.442,3.442,3.431,3.431,3.442,3.442,3.442,3.442,3.442,3.452,3.452,3.452,3.452,3.452,3.442,3.452,3.452,3.452,3.463,3.463,3.463,3.463,3.474,3.485,3.485,3.474,3.474,3.474,3.485,3.485,3.485,3.485,3.485,3.485,3.485,3.485,3.496,3.496,3.496,3.496,3.496,3.496,3.496,3.496,3.496,3.496,3.496,3.496,3.496,3.496,3.496,3.496,3.507,3.507,3.507,3.507,3.507,3.507,3.518,3.518,3.518,3.507,3.507,3.496,3.485,3.485,3.474,3.474,3.463,3.463,3.474,3.485,3.485,3.496,3.507,3.518,3.529,3.529,3.529,3.541,3.529,3.529,3.529,3.529,3.518,3.507,3.507,3.496,3.485,3.485,3.474,3.474,3.463,3.463,3.463,3.463,3.463,3.463,3.474,3.474,3.485,3.485,3.485,3.485,3.485,3.485,3.485,3.485,3.485,3.485,3.485,3.485,3.485,3.474,3.474,3.463,3.463,3.463,3.463,3.463,3.463,3.463,3.474,3.474,3.485,3.496,3.496,3.507,3.507,3.507,3.518,3.518,3.496,3.496,3.496,3.485,3.485,3.485,3.463,3.463,3.452,3.442,3.442,3.431,3.42,3.41,3.399,3.389,3.379,3.379,3.368,3.348,3.338,3.328,3.318,3.308,3.298,3.279,3.269,3.259,3.25,3.24,3.231,3.212,3.203,3.194,3.185,3.166,3.157,3.148,3.131,3.122,3.104,3.096,3.078,3.061,3.053,3.036,3.028,3.02,3.011,3.003,2.995,2.995,2.987,2.979,2.979,2.971,2.963,2.963,2.955,2.94,2.932,2.916,2.901,2.886,2.871,2.856,2.842,2.827,2.82,2.806,2.799,2.791,2.784,2.777,2.771,2.764,2.757,2.75,2.743,2.736,2.73,2.723,2.716,2.703,2.696,2.69,2.677,2.67,2.658,2.651,2.645,2.632,2.62,2.614,2.608,2.595,2.589,2.583,2.577,2.571,2.565,2.559,2.553,2.548,2.542,2.536,2.536,2.53,2.524,2.519,2.513,2.507,2.502,2.496,2.49,2.485,2.479,2.468,2.463,2.457,2.446,2.441,2.43,2.425,2.42,2.409,2.404,2.399,2.394,2.388,2.383,2.378,2.373,2.368,2.363,2.363
3.24,3.24,3.25,3.25,3.25,3.25,3.25,3.25,3.259,3.259,3.259,3.25,3.24,3.231,3.231,3.231,3.222,3.212,3.203,3.203,3.203,3.203,3.203,3.203,3.203,3.203,3.212,3.212,3.222,3.222,3.222,3.222,3.231,3.231,3.231,3.231,3.231,3.24,3.24,3.24,3.231,3.231,3.231,3.222,3.222,3.222,3.222,3.222,3.222,3.222,3.222,3.222,3.222,3.231,3.231,3.231,3.231,3.231,3.231,3.231,3.231,3.222,3.222,3.222,3.222,3.222,3.222,3.231,3.231,3.231,3.24,3.24,3.24,3.25,3.24,3.25,3.25,3.25,3.25,3.259,3.259,3.259,3.259,3.259,3.259,3.259,3.259,3.259,3.259,3.259,3.269,3.269,3.279,3.279,3.288,3.298,3.308,3.308,3.308,3.308,3.308,3.308,3.308,3.298,3.298,3.288,3.298,3.298,3.298,3.298,3.298,3.298,3.308,3.308,3.308,3.308,3.318,3.318,3.328,3.328,3.338,3.338,3.348,3.348,3.348,3.358,3.358,3.358,3.358,3.358,3.358,3.358,3.358,3.358,3.358,3.358,3.368,3.368,3.368,3.368,3.368,3.368,3.368,3.368,3.368,3.368,3.368,3.368,3.368,3.368,3.368,3.368,3.379,3.379,3.379,3.379,3.379,3.379,3.379,3.379,3.389,3.379,3.379,3.379,3.379,3.379,3.379,3.389,3.389,3.389,3.389,3.389,3.389,3.389,3.399,3.399,3.41,3.41,3.41,3.42,3.42,3.42,3.431,3.442,3.442,3.442,3.442,3.442,3.442,3.442,3.442,3.431,3.431,3.431,3.431,3.42,3.42,3.42,3.42,3.42,3.42,3.42,3.42,3.42,3.42,3.42,3.42,3.42,3.42,3.41,3.41,3.41,3.41,3.41,3.399,3.41,3.41,3.42,3.42,3.42,3.42,3.431,3.431,3.442,3.442,3.442,3.442,3.442,3.442,3.442,3.442,3.442,3.442,3.442,3.442,3.452,3.452,3.452,3.452,3.452,3.463,3.463,3.463,3.463,3.452,3.452,3.452,3.442,3.442,3.442,3.452,3.452,3.452,3.452,3.452,3.463,3.463,3.463,3.452,3.452,3.452,3.463,3.463,3.463,3.463,3.463,3.474,3.485,3.485,3.485,3.485,3.485,3.474,3.485,3.474,3.485,3.474,3.474,3.485,3.485,3.485,3.485,3.485,3.485,3.496,3.496,3.496,3.496,3.496,3.496,3.496,3.496,3.496,3.496,3.507,3.507,3.507,3.507,3.507,3.507,3.518,3.518,3.507,3.507,3.518,3.507,3.507,3.496,3.485,3.485,3.474,3.463,3.463,3.463,3.463,3.463,3.463,3.485,3.485,3.507,3.507,3.518,3.529,3.529,3.529,3.529,3.529,3.529,3.529,3.518,3.507,3.507,3.496,3.485,3.485,3.485,3.474,3.463,3.463,3.463,3.463,3.463,3.463,3.474,3.474,3.485,3.485,3.485,3.485,3.485,3.485,3.485,3.485,3.485,3.485,3.485,3.485,3.485,3.474,3.474,3.463,3.463,3.452,3.452,3.463,3.463,3.463,3.463,3.474,3.485,3.496,3.496,3.507,3.507,3.507,3.518,3.518,3.507,3.507,3.507,3.496,3.485,3.485,3.474,3.463,3.463,3.452,3.442,3.431,3.42,3.41,3.399,3.389,3.389,3.379,3.368,3.358,3.338,3.328,3.318,3.308,3.298,3.288,3.269,3.259,3.25,3.24,3.231,3.222,3.203,3.194,3.185,3.166,3.157,3.148,3.131,3.122,3.104,3.087,3.078,3.061,3.053,3.036,3.028,3.02,3.011,3.003,2.995,2.995,2.987,2.979,2.971,2.971,2.963,2.955,2.947,2.94,2.924,2.909,2.901,2.886,2.871,2.856,2.842,2.827,2.82,2.806,2.799,2.791,2.784,2.777,2.771,2.764,2.757,2.75,2.743,2.736,2.73,2.723,2.716,2.71,2.703,2.69,2.683,2.677,2.664,2.658,2.645,2.632,2.626,2.614,2.608,2.595,2.589,2.583,2.577,2.571,2.565,2.559,2.553,2.548,2.542,2.536,2.53,2.524,2.519,2.513,2.513,2.507,2.502,2.496,2.49,2.485,2.479,2.474,2.463,2.457,2.452,2.446,2.436,2.425,2.42,2.414,2.409,2.404,2.399,2.394,2.388,2.383,2.378,2.373,2.368,2.363
3.24,3.24,3.25,3.25,3.25,3.25,3.259,3.259,3.259,3.259,3.259,3.25,3.25,3.231,3.231,3.222,3.222,3.212,3.203,3.203,3.203,3.194,3.194,3.194,3.194,3.203,3.203,3.212,3.212,3.222,3.222,3.222,3.231,3.231,3.24,3.24,3.24,3.24,3.24,3.24,3.24,3.24,3.231,3.231,3.222,3.222,3.222,3.212,3.212,3.212,3.212,3.222,3.222,3.222,3.231,3.231,3.231,3.231,3.231,3.231,3.231,3.222,3.222,3.212,3.212,3.222,3.222,3.222,3.222,3.231,3.231,3.24,3.24,3.24,3.24,3.24,3.24,3.24,3.24,3.25,3.25,3.25,3.25,3.25,3.25,3.24,3.24,3.24,3.25,3.25,3.259,3.259,3.269,3.279,3.279,3.288,3.298,3.298,3.298,3.298,3.298,3.298,3.298,3.288,3.288,3.288,3.288,3.288,3.288,3.288,3.288,3.288,3.288,3.288,3.298,3.298,3.298,3.308,3.318,3.318,3.328,3.328,3.338,3.338,3.338,3.348,3.348,3.348,3.348,3.348,3.348,3.348,3.348,3.348,3.338,3.348,3.348,3.348,3.348,3.348,3.358,3.358,3.358,3.358,3.358,3.358,3.358,3.358,3.368,3.368,3.368,3.379,3.379,3.389,3.389,3.389,3.389,3.389,3.379,3.389,3.389,3.389,3.379,3.379,3.379,3.379,3.379,3.379,3.389,3.389,3.389,3.389,3.389,3.389,3.399,3.399,3.41,3.41,3.42,3.42,3.42,3.431,3.431,3.442,3.442,3.442,3.442,3.442,3.442,3.442,3.442,3.442,3.431,3.431,3.431,3.42,3.42,3.42,3.42,3.42,3.42,3.42,3.42,3.42,3.42,3.42,3.42,3.42,3.42,3.41,3.41,3.41,3.41,3.41,3.41,3.41,3.41,3.42,3.42,3.42,3.42,3.42,3.431,3.431,3.442,3.431,3.431,3.442,3.442,3.442,3.442,3.442,3.442,3.442,3.442,3.452,3.452,3.452,3.463,3.463,3.463,3.463,3.463,3.463,3.463,3.463,3.463,3.463,3.463,3.463,3.463,3.463,3.463,3.463,3.463,3.463,3.463,3.463,3.463,3.463,3.463,3.463,3.463,3.474,3.474,3.474,3.485,3.485,3.485,3.485,3.485,3.485,3.474,3.474,3.474,3.474,3.474,3.463,3.463,3.474,3.474,3.485,3.485,3.485,3.485,3.485,3.485,3.496,3.496,3.496,3.496,3.507,3.507,3.507,3.507,3.507,3.507,3.518,3.518,3.518,3.518,3.518,3.507,3.507,3.507,3.507,3.496,3.496,3.485,3.474,3.463,3.463,3.452,3.442,3.442,3.452,3.463,3.474,3.485,3.496,3.507,3.518,3.529,3.529,3.529,3.529,3.529,3.529,3.529,3.518,3.507,3.507,3.496,3.496,3.485,3.485,3.474,3.474,3.463,3.463,3.463,3.463,3.474,3.474,3.485,3.485,3.485,3.485,3.496,3.496,3.496,3.496,3.496,3.496,3.496,3.485,3.485,3.485,3.485,3.474,3.463,3.463,3.452,3.452,3.452,3.452,3.452,3.463,3.463,3.474,3.485,3.496,3.496,3.507,3.507,3.518,3.518,3.518,3.507,3.507,3.507,3.496,3.485,3.485,3.474,3.463,3.452,3.452,3.442,3.431,3.42,3.41,3.399,3.389,3.379,3.368,3.358,3.348,3.338,3.328,3.318,3.298,3.288,3.279,3.269,3.259,3.24,3.231,3.222,3.203,3.194,3.185,3.175,3.157,3.148,3.131,3.113,3.104,3.087,3.078,3.061,3.053,3.036,3.028,3.02,3.011,3.003,2.995,2.995,2.987,2.979,2.971,2.963,2.963,2.955,2.947,2.94,2.924,2.916,2.901,2.886,2.871,2.856,2.842,2.827,2.82,2.813,2.799,2.791,2.784,2.777,2.777,2.771,2.764,2.757,2.75,2.743,2.736,2.73,2.716,2.716,2.703,2.696,2.69,2.677,2.67,2.658,2.645,2.632,2.626,2.614,2.608,2.595,2.589,2.583,2.577,2.571,2.565,2.559,2.553,2.548,2.542,2.536,2.53,2.524,2.519,2.513,2.507,2.502,2.502,2.496,2.49,2.485,2.479,2.474,2.468,2.463,2.452,2.446,2.441,2.43,2.42,2.414,2.409,2.404,2.399,2.394,2.388,2.383,2.378,2.373,2.368,2.363
3.24,3.24,3.25,3.25,3.25,3.25,3.259,3.259,3.259,3.259,3.259,3.25,3.25,3.24,3.231,3.222,3.222,3.212,3.203,3.203,3.194,3.185,3.185,3.194,3.194,3.194,3.203,3.203,3.212,3.212,3.222,3.222,3.231,3.231,3.24,3.24,3.24,3.24,3.24,3.24,3.24,3.24,3.24,3.231,3.222,3.222,3.222,3.212,3.212,3.212,3.212,3.212,3.212,3.222,3.222,3.222,3.231,3.231,3.231,3.231,3.222,3.222,3.212,3.212,3.212,3.222,3.222,3.222,3.222,3.222,3.231,3.231,3.24,3.24,3.24,3.24,3.24,3.24,3.24,3.24,3.24,3.24,3.24,3.231,3.231,3.231,3.231,3.231,3.231,3.24,3.25,3.25,3.259,3.269,3.279,3.288,3.288,3.288,3.298,3.298,3.298,3.298,3.288,3.288,3.279,3.279,3.279,3.269,3.269,3.269,3.269,3.279,3.279,3.279,3.279,3.288,3.288,3.298,3.308,3.308,3.318,3.318,3.328,3.328,3.328,3.348,3.348,3.348,3.338,3.338,3.338,3.338,3.338,3.338,3.338,3.338,3.338,3.338,3.348,3.348,3.348,3.348,3.348,3.348,3.358,3.358,3.358,3.358,3.368,3.368,3.379,3.379,3.389,3.389,3.389,3.389,3.389,3.389,3.389,3.389,3.389,3.389,3.389,3.389,3.379,3.389,3.389,3.389,3.389,3.389,3.389,3.389,3.389,3.389,3.399,3.41,3.41,3.41,3.42,3.42,3.42,3.431,3.431,3.442,3.442,3.442,3.442,3.442,3.442,3.442,3.442,3.442,3.431,3.442,3.431,3.431,3.42,3.42,3.42,3.42,3.42,3.42,3.42,3.42,3.42,3.42,3.42,3.42,3.42,3.42,3.42,3.42,3.42,3.42,3.41,3.41,3.42,3.42,3.42,3.42,3.42,3.42,3.42,3.431,3.431,3.431,3.431,3.431,3.431,3.431,3.431,3.431,3.431,3.442,3.442,3.442,3.452,3.452,3.463,3.463,3.463,3.463,3.474,3.474,3.474,3.474,3.474,3.463,3.463,3.463,3.474,3.474,3.463,3.463,3.463,3.463,3.474,3.463,3.463,3.463,3.463,3.474,3.474,3.485,3.485,3.485,3.485,3.485,3.485,3.485,3.485,3.474,3.474,3.474,3.463,3.463,3.463,3.463,3.463,3.463,3.463,3.463,3.474,3.474,3.485,3.485,3.485,3.485,3.496,3.496,3.507,3.507,3.507,3.507,3.507,3.507,3.518,3.518,3.518,3.518,3.518,3.518,3.507,3.507,3.507,3.507,3.496,3.485,3.474,3.463,3.452,3.442,3.442,3.442,3.442,3.442,3.452,3.463,3.474,3.485,3.507,3.507,3.518,3.529,3.529,3.529,3.529,3.518,3.518,3.507,3.507,3.507,3.496,3.485,3.485,3.485,3.474,3.474,3.463,3.463,3.463,3.463,3.474,3.474,3.485,3.485,3.485,3.485,3.496,3.496,3.496,3.496,3.496,3.496,3.496,3.496,3.496,3.485,3.485,3.485,3.474,3.463,3.463,3.452,3.463,3.452,3.452,3.463,3.463,3.474,3.485,3.496,3.496,3.507,3.507,3.518,3.518,3.518,3.507,3.507,3.507,3.507,3.496,3.485,3.474,3.463,3.463,3.452,3.442,3.431,3.42,3.41,3.399,3.399,3.389,3.379,3.358,3.348,3.338,3.328,3.318,3.308,3.298,3.279,3.269,3.259,3.24,3.231,3.222,3.212,3.194,3.185,3.175,3.157,3.148,3.131,3.122,3.104,3.087,3.078,3.061,3.053,3.045,3.028,3.02,3.011,3.003,2.995,2.995,2.987,2.979,2.971,2.963,2.963,2.955,2.947,2.94,2.924,2.909,2.901,2.886,2.871,2.856,2.842,2.834,2.82,2.813,2.806,2.799,2.791,2.784,2.777,2.771,2.764,2.757,2.75,2.743,2.736,2.73,2.723,2.716,2.71,2.696,2.69,2.683,2.67,2.658,2.645,2.632,2.626,2.614,2.608,2.595,2.589,2.583,2.577,2.571,2.565,2.559,2.553,2.542,2.536,2.53,2.524,2.524,2.519,2.513,2.507,2.502,2.496,2.496,2.49,2.485,2.479,2.474,2.468,2.463,2.457,2.452,2.441,2.436,2.425,2.414,2.409,2.404,2.399,2.394,2.388,2.383,2.378,2.373,2.368,2.363
3.24,3.24,3.24,3.25,3.25,3.25,3.259,3.259,3.259,3.259,3.259,3.259,3.25,3.24,3.231,3.222,3.222,3.203,3.203,3.194,3.194,3.185,3.185,3.185,3.194,3.194,3.194,3.203,3.212,3.212,3.222,3.231,3.231,3.24,3.24,3.24,3.24,3.24,3.24,3.24,3.24,3.24,3.24,3.231,3.222,3.222,3.222,3.212,3.212,3.212,3.212,3.212,3.212,3.222,3.222,3.222,3.222,3.231,3.231,3.222,3.222,3.222,3.212,3.212,3.212,3.212,3.222,3.222,3.222,3.222,3.231,3.231,3.24,3.24,3.24,3.24,3.231,3.231,3.231,3.231,3.231,3.231,3.231,3.231,3.222,3.222,3.222,3.222,3.222,3.231,3.24,3.25,3.259,3.269,3.269,3.279,3.288,3.288,3.288,3.288,3.288,3.288,3.288,3.279,3.279,3.279,3.269,3.269,3.269,3.259,3.259,3.269,3.269,3.269,3.269,3.279,3.279,3.288,3.288,3.298,3.308,3.318,3.318,3.328,3.328,3.338,3.338,3.338,3.338,3.338,3.338,3.338,3.338,3.338,3.328,3.328,3.338,3.338,3.338,3.338,3.338,3.348,3.348,3.348,3.348,3.348,3.358,3.358,3.368,3.368,3.379,3.379,3.379,3.389,3.389,3.389,3.389,3.389,3.389,3.389,3.389,3.389,3.389,3.389,3.389,3.389,3.389,3.389,3.389,3.389,3.389,3.389,3.389,3.389,3.399,3.41,3.41,3.42,3.42,3.42,3.431,3.431,3.442,3.442,3.442,3.442,3.442,3.442,3.442,3.442,3.442,3.442,3.442,3.442,3.431,3.431,3.42,3.42,3.42,3.42,3.42,3.42,3.42,3.42,3.42,3.42,3.431,3.42,3.42,3.42,3.42,3.42,3.42,3.42,3.42,3.42,3.42,3.42,3.42,3.42,3.42,3.42,3.42,3.42,3.42,3.42,3.42,3.42,3.431,3.431,3.431,3.431,3.431,3.431,3.431,3.442,3.442,3.452,3.452,3.463,3.463,3.474,3.474,3.485,3.485,3.485,3.485,3.485,3.485,3.485,3.485,3.485,3.474,3.474,3.474,3.474,3.474,3.474,3.463,3.463,3.474,3.474,3.485,3.485,3.485,3.485,3.485,3.485,3.485,3.485,3.485,3.474,3.463,3.463,3.463,3.452,3.452,3.452,3.452,3.452,3.452,3.463,3.463,3.463,3.474,3.474,3.485,3.485,3.485,3.496,3.507,3.507,3.507,3.507,3.518,3.518,3.518,3.518,3.518,3.518,3.518,3.518,3.507,3.507,3.507,3.496,3.485,3.485,3.463,3.463,3.442,3.442,3.431,3.431,3.431,3.442,3.442,3.452,3.463,3.485,3.496,3.507,3.507,3.518,3.518,3.518,3.518,3.507,3.507,3.507,3.507,3.496,3.496,3.485,3.485,3.474,3.474,3.474,3.463,3.463,3.463,3.463,3.474,3.474,3.485,3.485,3.485,3.485,3.496,3.496,3.496,3.496,3.507,3.507,3.496,3.496,3.496,3.496,3.485,3.485,3.474,3.463,3.463,3.463,3.463,3.463,3.463,3.463,3.463,3.474,3.485,3.496,3.496,3.507,3.507,3.518,3.518,3.518,3.518,3.507,3.507,3.507,3.496,3.485,3.485,3.474,3.463,3.463,3.452,3.442,3.431,3.42,3.41,3.399,3.389,3.379,3.368,3.358,3.348,3.338,3.328,3.308,3.298,3.279,3.269,3.259,3.25,3.231,3.222,3.212,3.194,3.185,3.175,3.157,3.148,3.131,3.122,3.104,3.096,3.078,3.07,3.053,3.045,3.036,3.028,3.02,3.011,3.003,2.995,2.987,2.979,2.971,2.963,2.963,2.955,2.947,2.932,2.924,2.909,2.894,2.878,2.864,2.856,2.842,2.834,2.82,2.813,2.806,2.799,2.791,2.784,2.777,2.771,2.771,2.764,2.757,2.743,2.736,2.73,2.723,2.716,2.71,2.696,2.69,2.683,2.67,2.658,2.645,2.639,2.626,2.614,2.608,2.601,2.589,2.583,2.577,2.571,2.565,2.559,2.553,2.542,2.536,2.53,2.524,2.519,2.513,2.507,2.502,2.502,2.496,2.49,2.49,2.485,2.479,2.474,2.474,2.468,2.463,2.452,2.446,2.436,2.43,2.42,2.409,2.404,2.399,2.394,2.388,2.383,2.378,2.373,2.368,2.363
3.24,3.24,3.24,3.25,3.25,3.25,3.259,3.259,3.259,3.259,3.259,3.259,3.25,3.24,3.231,3.222,3.212,3.203,3.203,3.194,3.185,3.185,3.185,3.185,3.194,3.194,3.194,3.203,3.212,3.212,3.222,3.231,3.231,3.24,3.24,3.24,3.24,3.24,3.24,3.24,3.24,3.24,3.24,3.231,3.222,3.222,3.222,3.212,3.203,3.203,3.203,3.212,3.212,3.212,3.222,3.222,3.222,3.222,3.222,3.222,3.222,3.222,3.212,3.212,3.212,3.212,3.222,3.222,3.222,3.222,3.222,3.231,3.231,3.231,3.231,3.231,3.231,3.231,3.231,3.231,3.231,3.231,3.231,3.222,3.222,3.222,3.222,3.222,3.222,3.231,3.231,3.24,3.25,3.259,3.269,3.279,3.279,3.288,3.288,3.288,3.288,3.288,3.288,3.279,3.269,3.269,3.269,3.269,3.259,3.259,3.25,3.259,3.259,3.259,3.259,3.269,3.269,3.279,3.288,3.288,3.298,3.308,3.308,3.318,3.318,3.328,3.338,3.338,3.338,3.338,3.338,3.338,3.328,3.328,3.328,3.328,3.338,3.338,3.338,3.338,3.338,3.338,3.348,3.348,3.348,3.348,3.358,3.358,3.368,3.368,3.379,3.379,3.379,3.389,3.389,3.389,3.399,3.399,3.399,3.399,3.399,3.389,3.389,3.389,3.389,3.389,3.389,3.389,3.389,3.389,3.389,3.389,3.389,3.399,3.399,3.41,3.41,3.42,3.431,3.431,3.431,3.442,3.442,3.442,3.442,3.442,3.442,3.442,3.442,3.442,3.442,3.442,3.442,3.442,3.442,3.431,3.431,3.42,3.42,3.42,3.42,3.42,3.42,3.42,3.42,3.42,3.431,3.431,3.42,3.42,3.42,3.431,3.431,3.42,3.42,3.42,3.42,3.42,3.431,3.431,3.431,3.42,3.42,3.42,3.42,3.42,3.42,3.42,3.42,3.42,3.42,3.42,3.42,3.42,3.431,3.431,3.431,3.442,3.452,3.452,3.463,3.463,3.474,3.474,3.485,3.485,3.485,3.485,3.485,3.485,3.485,3.485,3.485,3.485,3.485,3.485,3.485,3.474,3.474,3.474,3.474,3.485,3.485,3.485,3.485,3.485,3.485,3.485,3.485,3.485,3.474,3.463,3.463,3.463,3.452,3.442,3.442,3.442,3.442,3.442,3.442,3.452,3.452,3.463,3.463,3.463,3.474,3.485,3.485,3.496,3.496,3.507,3.507,3.507,3.518,3.518,3.518,3.518,3.518,3.518,3.518,3.518,3.507,3.507,3.507,3.496,3.485,3.485,3.463,3.463,3.442,3.442,3.431,3.431,3.431,3.431,3.442,3.452,3.463,3.474,3.485,3.496,3.507,3.507,3.507,3.507,3.507,3.507,3.507,3.507,3.496,3.485,3.485,3.485,3.485,3.474,3.474,3.463,3.463,3.463,3.463,3.463,3.463,3.474,3.474,3.485,3.485,3.485,3.485,3.485,3.496,3.496,3.507,3.507,3.496,3.496,3.496,3.496,3.485,3.485,3.474,3.463,3.463,3.463,3.463,3.463,3.463,3.463,3.474,3.474,3.485,3.496,3.496,3.496,3.507,3.518,3.518,3.518,3.507,3.507,3.507,3.507,3.496,3.485,3.485,3.474,3.474,3.463,3.452,3.442,3.431,3.42,3.42,3.41,3.399,3.389,3.379,3.368,3.358,3.338,3.328,3.318,3.298,3.288,3.269,3.259,3.25,3.231,3.222,3.212,3.203,3.185,3.175,3.166,3.148,3.139,3.122,3.104,3.096,3.087,3.07,3.061,3.045,3.036,3.028,3.02,3.011,3.003,2.995,2.987,2.979,2.971,2.971,2.963,2.955,2.947,2.932,2.924,2.909,2.894,2.878,2.871,2.856,2.842,2.834,2.82,2.813,2.806,2.799,2.791,2.784,2.784,2.777,2.771,2.764,2.757,2.75,2.743,2.736,2.723,2.716,2.71,2.696,2.69,2.677,2.67,2.658,2.651,2.639,2.626,2.614,2.608,2.601,2.595,2.589,2.577,2.571,2.565,2.559,2.553,2.542,2.536,2.53,2.524,2.519,2.513,2.502,2.502,2.496,2.496,2.49,2.49,2.485,2.479,2.479,2.474,2.474,2.463,2.457,2.446,2.436,2.43,2.42,2.409,2.404,2.399,2.394,2.388,2.383,2.378,2.373,2.368,2.363
3.231,3.24,3.24,3.25,3.25,3.25,3.259,3.259,3.259,3.259,3.259,3.25,3.25,3.24,3.231,3.222,3.212,3.203,3.194,3.194,3.185,3.185,3.185,3.185,3.194,3.194,3.203,3.212,3.212,3.222,3.222,3.231,3.231,3.24,3.24,3.24,3.24,3.24,3.24,3.24,3.24,3.24,3.231,3.231,3.222,3.222,3.212,3.212,3.203,3.203,3.203,3.203,3.212,3.212,3.212,3.222,3.222,3.222,3.222,3.222,3.222,3.222,3.212,3.212,3.212,3.212,3.212,3.222,3.222,3.222,3.222,3.231,3.231,3.231,3.231,3.231,3.231,3.222,3.222,3.222,3.222,3.222,3.222,3.222,3.222,3.222,3.222,3.222,3.222,3.231,3.231,3.24,3.25,3.259,3.269,3.279,3.279,3.288,3.288,3.288,3.288,3.288,3.288,3.279,3.279,3.269,3.269,3.259,3.259,3.259,3.25,3.25,3.25,3.259,3.259,3.259,3.259,3.269,3.279,3.288,3.288,3.298,3.308,3.318,3.318,3.328,3.328,3.328,3.328,3.328,3.328,3.328,3.328,3.328,3.328,3.328,3.328,3.328,3.338,3.338,3.338,3.338,3.338,3.338,3.338,3.348,3.348,3.358,3.358,3.368,3.368,3.368,3.379,3.379,3.389,3.389,3.389,3.389,3.399,3.399,3.399,3.389,3.389,3.389,3.389,3.389,3.389,3.389,3.389,3.389,3.389,3.399,3.399,3.399,3.41,3.41,3.42,3.431,3.431,3.442,3.442,3.442,3.442,3.442,3.442,3.442,3.452,3.452,3.452,3.452,3.442,3.442,3.442,3.442,3.442,3.442,3.431,3.42,3.42,3.42,3.42,3.42,3.42,3.42,3.42,3.431,3.431,3.431,3.431,3.42,3.431,3.431,3.431,3.431,3.431,3.431,3.431,3.431,3.431,3.431,3.42,3.42,3.42,3.42,3.42,3.42,3.42,3.42,3.42,3.42,3.42,3.42,3.42,3.42,3.431,3.431,3.431,3.442,3.442,3.452,3.452,3.463,3.463,3.474,3.474,3.474,3.485,3.485,3.485,3.485,3.485,3.485,3.485,3.485,3.485,3.485,3.485,3.474,3.474,3.474,3.474,3.485,3.485,3.485,3.485,3.485,3.485,3.485,3.485,3.474,3.463,3.463,3.463,3.452,3.442,3.442,3.431,3.431,3.442,3.442,3.442,3.452,3.452,3.463,3.463,3.463,3.474,3.474,3.485,3.485,3.496,3.507,3.507,3.507,3.507,3.518,3.518,3.518,3.518,3.518,3.518,3.507,3.507,3.507,3.507,3.496,3.485,3.485,3.463,3.463,3.442,3.442,3.431,3.431,3.431,3.431,3.442,3.442,3.463,3.463,3.485,3.485,3.496,3.507,3.507,3.507,3.507,3.507,3.496,3.496,3.485,3.485,3.485,3.485,3.474,3.463,3.463,3.463,3.463,3.463,3.463,3.463,3.463,3.474,3.474,3.485,3.485,3.485,3.485,3.485,3.485,3.496,3.496,3.507,3.496,3.496,3.496,3.496,3.485,3.485,3.474,3.463,3.463,3.463,3.463,3.463,3.463,3.463,3.474,3.485,3.485,3.496,3.496,3.507,3.507,3.518,3.518,3.518,3.507,3.507,3.507,3.507,3.507,3.496,3.485,3.485,3.474,3.463,3.463,3.452,3.442,3.431,3.42,3.42,3.399,3.389,3.379,3.368,3.358,3.348,3.328,3.318,3.298,3.288,3.279,3.259,3.25,3.24,3.222,3.212,3.203,3.185,3.175,3.166,3.148,3.139,3.122,3.113,3.096,3.087,3.07,3.061,3.053,3.045,3.036,3.028,3.02,3.011,3.003,2.995,2.987,2.979,2.971,2.963,2.955,2.947,2.94,2.924,2.916,2.901,2.886,2.871,2.856,2.849,2.834,2.82,2.813,2.806,2.799,2.791,2.791,2.784,2.777,2.771,2.764,2.757,2.75,2.743,2.736,2.723,2.716,2.71,2.696,2.69,2.677,2.67,2.658,2.651,2.639,2.626,2.62,2.614,2.608,2.595,2.589,2.583,2.577,2.565,2.559,2.553,2.548,2.536,2.53,2.524,2.519,2.513,2.502,2.502,2.496,2.496,2.49,2.49,2.485,2.485,2.485,2.479,2.474,2.468,2.463,2.452,2.441,2.43,2.425,2.414,2.404,2.399,2.394,2.383,2.383,2.378,2.373,2.368,2.363
3.231,3.24,3.24,3.24,3.25,3.25,3.25,3.259,3.259,3.259,3.25,3.25,3.24,3.231,3.231,3.222,3.212,3.203,3.194,3.194,3.194,3.185,3.185,3.194,3.194,3.194,3.203,3.212,3.212,3.222,3.222,3.231,3.231,3.231,3.24,3.24,3.24,3.24,3.24,3.24,3.24,3.24,3.231,3.222,3.222,3.222,3.212,3.203,3.203,3.203,3.203,3.203,3.203,3.212,3.212,3.212,3.222,3.222,3.222,3.222,3.222,3.222,3.222,3.212,3.212,3.212,3.212,3.222,3.222,3.222,3.222,3.222,3.231,3.231,3.231,3.231,3.231,3.222,3.222,3.222,3.222,3.222,3.222,3.222,3.222,3.222,3.222,3.222,3.222,3.222,3.231,3.24,3.25,3.259,3.269,3.269,3.279,3.288,3.288,3.288,3.288,3.288,3.288,3.279,3.279,3.269,3.269,3.259,3.259,3.25,3.25,3.24,3.24,3.25,3.25,3.25,3.259,3.259,3.269,3.279,3.288,3.298,3.308,3.308,3.308,3.318,3.328,3.328,3.328,3.328,3.328,3.328,3.328,3.328,3.318,3.328,3.328,3.328,3.328,3.338,3.338,3.338,3.348,3.338,3.338,3.348,3.348,3.358,3.358,3.368,3.368,3.368,3.368,3.379,3.379,3.389,3.389,3.389,3.389,3.399,3.399,3.389,3.389,3.389,3.389,3.389,3.389,3.389,3.389,3.389,3.399,3.399,3.41,3.41,3.41,3.42,3.431,3.442,3.442,3.442,3.442,3.442,3.452,3.452,3.452,3.452,3.452,3.452,3.452,3.452,3.452,3.442,3.442,3.442,3.442,3.442,3.431,3.42,3.42,3.42,3.42,3.42,3.42,3.42,3.42,3.42,3.431,3.431,3.431,3.431,3.431,3.442,3.442,3.442,3.442,3.442,3.442,3.442,3.442,3.431,3.42,3.42,3.42,3.42,3.42,3.42,3.42,3.42,3.41,3.41,3.41,3.41,3.41,3.42,3.42,3.431,3.431,3.431,3.431,3.442,3.452,3.452,3.452,3.463,3.463,3.463,3.474,3.474,3.485,3.485,3.485,3.485,3.485,3.485,3.485,3.485,3.485,3.474,3.474,3.474,3.474,3.485,3.485,3.485,3.485,3.485,3.485,3.485,3.485,3.474,3.463,3.463,3.452,3.442,3.442,3.431,3.42,3.42,3.431,3.442,3.442,3.442,3.442,3.452,3.463,3.463,3.463,3.474,3.485,3.485,3.485,3.496,3.496,3.507,3.507,3.507,3.507,3.507,3.518,3.507,3.507,3.507,3.507,3.507,3.507,3.496,3.485,3.485,3.463,3.463,3.452,3.442,3.431,3.431,3.431,3.431,3.442,3.442,3.463,3.463,3.485,3.485,3.496,3.496,3.496,3.507,3.507,3.496,3.496,3.485,3.485,3.485,3.485,3.474,3.474,3.463,3.463,3.463,3.463,3.463,3.463,3.463,3.463,3.463,3.474,3.474,3.485,3.485,3.485,3.485,3.485,3.496,3.496,3.507,3.496,3.496,3.496,3.496,3.485,3.485,3.474,3.463,3.463,3.463,3.463,3.463,3.463,3.463,3.474,3.485,3.485,3.485,3.496,3.496,3.507,3.507,3.518,3.518,3.507,3.507,3.507,3.507,3.507,3.496,3.496,3.485,3.474,3.474,3.463,3.452,3.452,3.442,3.431,3.42,3.41,3.399,3.389,3.379,3.358,3.348,3.338,3.318,3.308,3.288,3.279,3.259,3.25,3.24,3.222,3.212,3.203,3.185,3.175,3.166,3.148,3.139,3.122,3.113,3.104,3.087,3.078,3.07,3.053,3.045,3.036,3.028,3.02,3.011,3.003,2.995,2.987,2.979,2.979,2.971,2.963,2.955,2.94,2.932,2.916,2.901,2.886,2.878,2.864,2.849,2.834,2.827,2.813,2.806,2.806,2.799,2.791,2.784,2.777,2.771,2.764,2.757,2.75,2.743,2.736,2.723,2.716,2.71,2.696,2.69,2.677,2.67,2.658,2.651,2.639,2.632,2.62,2.614,2.608,2.601,2.595,2.583,2.577,2.571,2.559,2.553,2.548,2.536,2.53,2.524,2.519,2.513,2.502,2.502,2.496,2.496,2.49,2.49,2.49,2.485,2.485,2.485,2.479,2.474,2.463,2.452,2.446,2.436,2.425,2.414,2.404,2.399,2.394,2.383,2.378,2.378,2.373,2.368,2.363
3.222,3.231,3.24,3.24,3.24,3.25,3.25,3.25,3.25,3.25,3.25,3.24,3.24,3.231,3.222,3.212,3.212,3.203,3.203,3.194,3.194,3.194,3.194,3.194,3.194,3.203,3.212,3.212,3.222,3.222,3.231,3.231,3.231,3.231,3.24,3.24,3.24,3.24,3.24,3.24,3.24,3.231,3.231,3.222,3.222,3.212,3.212,3.203,3.203,3.203,3.203,3.203,3.203,3.203,3.212,3.212,3.222,3.222,3.222,3.222,3.222,3.222,3.222,3.222,3.212,3.212,3.212,3.212,3.212,3.212,3.222,3.222,3.231,3.231,3.231,3.231,3.231,3.222,3.222,3.222,3.222,3.222,3.222,3.222,3.222,3.222,3.222,3.222,3.222,3.222,3.231,3.24,3.25,3.259,3.269,3.269,3.279,3.288,3.288,3.298,3.298,3.288,3.288,3.279,3.279,3.269,3.269,3.259,3.259,3.25,3.25,3.24,3.24,3.24,3.24,3.25,3.25,3.259,3.269,3.279,3.279,3.288,3.298,3.308,3.308,3.318,3.318,3.318,3.328,3.328,3.328,3.328,3.328,3.328,3.328,3.328,3.328,3.328,3.328,3.338,3.338,3.338,3.338,3.338,3.338,3.338,3.348,3.348,3.358,3.358,3.358,3.368,3.368,3.379,3.379,3.379,3.389,3.389,3.389,3.389,3.389,3.389,3.389,3.389,3.389,3.389,3.389,3.389,3.389,3.389,3.399,3.41,3.41,3.42,3.42,3.431,3.431,3.442,3.442,3.442,3.452,3.452,3.452,3.452,3.452,3.452,3.452,3.452,3.452,3.452,3.452,3.442,3.442,3.452,3.442,3.442,3.431,3.431,3.42,3.42,3.42,3.42,3.42,3.42,3.42,3.42,3.431,3.431,3.431,3.431,3.442,3.442,3.442,3.442,3.442,3.442,3.442,3.442,3.442,3.442,3.431,3.431,3.431,3.42,3.42,3.42,3.42,3.42,3.42,3.42,3.42,3.41,3.42,3.42,3.42,3.431,3.431,3.431,3.431,3.442,3.442,3.442,3.452,3.452,3.463,3.463,3.463,3.474,3.474,3.485,3.485,3.485,3.474,3.474,3.485,3.474,3.474,3.474,3.474,3.463,3.474,3.485,3.485,3.485,3.485,3.485,3.485,3.485,3.485,3.474,3.463,3.452,3.442,3.442,3.431,3.42,3.42,3.42,3.431,3.431,3.431,3.442,3.442,3.452,3.452,3.463,3.463,3.463,3.474,3.485,3.485,3.485,3.496,3.496,3.507,3.507,3.507,3.507,3.507,3.507,3.507,3.507,3.507,3.507,3.496,3.485,3.485,3.485,3.463,3.463,3.452,3.442,3.442,3.431,3.431,3.442,3.442,3.452,3.463,3.463,3.474,3.485,3.496,3.496,3.496,3.496,3.496,3.496,3.496,3.485,3.485,3.485,3.485,3.474,3.463,3.463,3.463,3.463,3.463,3.463,3.463,3.463,3.463,3.463,3.463,3.474,3.474,3.485,3.485,3.485,3.485,3.496,3.496,3.507,3.496,3.496,3.496,3.485,3.485,3.485,3.474,3.463,3.463,3.463,3.463,3.463,3.463,3.463,3.474,3.485,3.485,3.485,3.496,3.496,3.507,3.507,3.507,3.507,3.507,3.507,3.507,3.507,3.507,3.496,3.496,3.485,3.485,3.474,3.463,3.463,3.452,3.442,3.431,3.42,3.41,3.399,3.389,3.379,3.368,3.348,3.338,3.318,3.308,3.288,3.269,3.259,3.25,3.231,3.222,3.212,3.194,3.185,3.175,3.157,3.148,3.131,3.122,3.113,3.104,3.096,3.078,3.07,3.061,3.045,3.036,3.036,3.028,3.02,3.011,3.003,2.995,2.987,2.979,2.971,2.971,2.955,2.947,2.94,2.924,2.909,2.894,2.878,2.864,2.856,2.842,2.827,2.82,2.813,2.806,2.799,2.791,2.784,2.777,2.771,2.764,2.757,2.75,2.743,2.736,2.723,2.716,2.71,2.696,2.69,2.683,2.67,2.658,2.651,2.645,2.632,2.626,2.62,2.614,2.601,2.595,2.589,2.577,2.571,2.565,2.553,2.548,2.542,2.53,2.524,2.519,2.513,2.507,2.502,2.502,2.496,2.496,2.496,2.49,2.49,2.49,2.49,2.485,2.474,2.468,2.457,2.446,2.441,2.425,2.42,2.404,2.399,2.394,2.383,2.383,2.378,2.373,2.368,2.363
3.222,3.231,3.231,3.231,3.24,3.24,3.25,3.25,3.25,3.25,3.24,3.24,3.231,3.231,3.222,3.212,3.212,3.203,3.203,3.203,3.194,3.194,3.194,3.203,3.203,3.203,3.212,3.212,3.222,3.222,3.231,3.231,3.231,3.231,3.24,3.24,3.24,3.24,3.24,3.24,3.24,3.231,3.231,3.222,3.222,3.212,3.212,3.203,3.203,3.203,3.203,3.203,3.203,3.203,3.212,3.212,3.222,3.222,3.222,3.222,3.222,3.222,3.222,3.222,3.222,3.212,3.212,3.212,3.212,3.222,3.222,3.222,3.231,3.231,3.231,3.231,3.231,3.231,3.222,3.222,3.222,3.222,3.222,3.222,3.222,3.222,3.222,3.222,3.222,3.231,3.231,3.24,3.25,3.259,3.269,3.279,3.279,3.288,3.298,3.298,3.298,3.298,3.288,3.288,3.279,3.279,3.269,3.269,3.259,3.25,3.25,3.24,3.24,3.24,3.24,3.24,3.25,3.25,3.259,3.269,3.279,3.288,3.298,3.308,3.308,3.318,3.318,3.318,3.328,3.328,3.328,3.328,3.328,3.328,3.328,3.328,3.328,3.338,3.338,3.338,3.338,3.338,3.338,3.338,3.338,3.338,3.338,3.348,3.348,3.358,3.358,3.358,3.368,3.368,3.379,3.379,3.379,3.389,3.389,3.389,3.389,3.389,3.389,3.389,3.389,3.389,3.389,3.389,3.389,3.399,3.41,3.41,3.42,3.42,3.42,3.431,3.442,3.442,3.452,3.452,3.452,3.452,3.463,3.463,3.452,3.452,3.452,3.452,3.452,3.452,3.452,3.442,3.442,3.452,3.442,3.442,3.431,3.431,3.431,3.42,3.42,3.42,3.42,3.42,3.431,3.431,3.431,3.431,3.431,3.442,3.442,3.442,3.452,3.452,3.452,3.452,3.452,3.452,3.442,3.442,3.442,3.431,3.431,3.42,3.42,3.42,3.42,3.42,3.42,3.42,3.42,3.42,3.42,3.42,3.42,3.431,3.431,3.431,3.431,3.431,3.442,3.442,3.452,3.452,3.452,3.463,3.463,3.463,3.463,3.474,3.474,3.474,3.463,3.474,3.474,3.463,3.463,3.463,3.463,3.463,3.474,3.474,3.485,3.474,3.485,3.485,3.485,3.485,3.485,3.463,3.463,3.452,3.442,3.442,3.431,3.42,3.42,3.42,3.431,3.431,3.431,3.442,3.442,3.452,3.463,3.463,3.463,3.463,3.474,3.485,3.485,3.485,3.485,3.496,3.496,3.496,3.496,3.507,3.507,3.507,3.507,3.507,3.496,3.496,3.496,3.485,3.485,3.485,3.474,3.463,3.463,3.452,3.442,3.442,3.442,3.442,3.442,3.452,3.463,3.463,3.485,3.485,3.496,3.496,3.496,3.496,3.496,3.496,3.496,3.485,3.485,3.485,3.485,3.474,3.463,3.463,3.463,3.463,3.463,3.463,3.463,3.463,3.463,3.463,3.463,3.474,3.474,3.474,3.485,3.485,3.485,3.496,3.496,3.507,3.496,3.496,3.496,3.485,3.485,3.485,3.474,3.463,3.463,3.463,3.463,3.463,3.463,3.463,3.474,3.485,3.485,3.485,3.485,3.496,3.496,3.507,3.507,3.507,3.507,3.507,3.507,3.507,3.507,3.496,3.496,3.496,3.485,3.474,3.474,3.463,3.452,3.452,3.442,3.431,3.42,3.41,3.399,3.379,3.368,3.348,3.338,3.318,3.308,3.288,3.269,3.259,3.24,3.231,3.222,3.203,3.194,3.175,3.166,3.157,3.139,3.131,3.122,3.113,3.104,3.096,3.078,3.07,3.061,3.045,3.036,3.036,3.028,3.02,3.011,3.003,2.995,2.987,2.979,2.979,2.971,2.963,2.955,2.94,2.932,2.916,2.901,2.878,2.871,2.856,2.842,2.827,2.82,2.813,2.806,2.799,2.791,2.784,2.777,2.771,2.764,2.757,2.75,2.743,2.736,2.73,2.716,2.71,2.703,2.696,2.683,2.67,2.664,2.658,2.645,2.639,2.626,2.62,2.614,2.608,2.601,2.589,2.583,2.577,2.565,2.559,2.548,2.542,2.536,2.53,2.519,2.513,2.507,2.507,2.502,2.496,2.496,2.496,2.496,2.49,2.49,2.49,2.485,2.479,2.468,2.463,2.452,2.436,2.43,2.42,2.409,2.399,2.394,2.388,2.383,2.378,2.373,2.368,2.363
3.222,3.231,3.231,3.231,3.231,3.24,3.24,3.24,3.24,3.24,3.24,3.231,3.231,3.231,3.222,3.212,3.212,3.203,3.203,3.203,3.203,3.203,3.203,3.203,3.212,3.212,3.212,3.222,3.222,3.222,3.231,3.231,3.231,3.231,3.24,3.24,3.24,3.24,3.24,3.24,3.24,3.231,3.231,3.222,3.222,3.212,3.203,3.203,3.203,3.203,3.203,3.203,3.203,3.203,3.203,3.212,3.222,3.222,3.222,3.222,3.222,3.222,3.231,3.222,3.222,3.222,3.222,3.222,3.222,3.222,3.222,3.222,3.231,3.231,3.231,3.231,3.231,3.231,3.231,3.231,3.231,3.222,3.222,3.222,3.222,3.222,3.231,3.231,3.231,3.231,3.24,3.24,3.25,3.259,3.269,3.279,3.279,3.288,3.298,3.298,3.298,3.298,3.298,3.288,3.288,3.279,3.269,3.269,3.259,3.25,3.24,3.24,3.24,3.24,3.231,3.24,3.25,3.25,3.259,3.269,3.279,3.288,3.298,3.298,3.308,3.318,3.318,3.318,3.328,3.328,3.328,3.328,3.338,3.338,3.338,3.338,3.338,3.338,3.338,3.338,3.338,3.338,3.338,3.338,3.338,3.338,3.338,3.338,3.338,3.348,3.348,3.348,3.358,3.368,3.368,3.368,3.379,3.379,3.379,3.379,3.389,3.379,3.389,3.389,3.389,3.389,3.389,3.399,3.399,3.399,3.41,3.42,3.42,3.42,3.431,3.442,3.442,3.452,3.463,3.463,3.463,3.463,3.463,3.463,3.452,3.452,3.452,3.452,3.452,3.452,3.442,3.442,3.442,3.442,3.442,3.442,3.431,3.431,3.431,3.42,3.42,3.42,3.42,3.42,3.431,3.431,3.431,3.431,3.442,3.442,3.442,3.452,3.452,3.452,3.463,3.463,3.463,3.452,3.452,3.442,3.442,3.442,3.431,3.431,3.42,3.42,3.431,3.431,3.431,3.431,3.431,3.42,3.431,3.431,3.431,3.431,3.431,3.431,3.431,3.431,3.431,3.442,3.442,3.452,3.452,3.452,3.463,3.463,3.463,3.474,3.474,3.474,3.463,3.474,3.474,3.463,3.463,3.463,3.463,3.463,3.463,3.474,3.474,3.474,3.474,3.474,3.485,3.485,3.474,3.463,3.463,3.452,3.442,3.442,3.431,3.42,3.42,3.42,3.431,3.431,3.442,3.442,3.452,3.452,3.463,3.463,3.463,3.474,3.474,3.485,3.485,3.485,3.485,3.485,3.485,3.496,3.496,3.496,3.496,3.496,3.496,3.496,3.496,3.496,3.485,3.485,3.485,3.485,3.474,3.474,3.463,3.463,3.452,3.452,3.452,3.452,3.463,3.463,3.463,3.474,3.485,3.485,3.496,3.496,3.496,3.496,3.507,3.496,3.496,3.496,3.485,3.485,3.485,3.474,3.463,3.463,3.463,3.463,3.463,3.463,3.463,3.463,3.463,3.463,3.463,3.474,3.474,3.474,3.485,3.485,3.485,3.496,3.496,3.507,3.496,3.496,3.496,3.485,3.485,3.485,3.474,3.463,3.463,3.463,3.463,3.463,3.463,3.463,3.474,3.485,3.485,3.485,3.496,3.496,3.496,3.507,3.507,3.507,3.507,3.507,3.507,3.507,3.507,3.496,3.496,3.485,3.485,3.474,3.474,3.463,3.452,3.452,3.442,3.431,3.42,3.41,3.399,3.379,3.368,3.348,3.338,3.318,3.298,3.288,3.269,3.259,3.24,3.231,3.212,3.203,3.185,3.175,3.166,3.148,3.139,3.131,3.122,3.113,3.104,3.096,3.078,3.07,3.061,3.045,3.036,3.036,3.028,3.02,3.011,3.003,2.995,2.987,2.987,2.979,2.971,2.963,2.955,2.947,2.932,2.916,2.901,2.886,2.871,2.856,2.849,2.834,2.82,2.813,2.806,2.799,2.791,2.784,2.777,2.771,2.771,2.764,2.757,2.743,2.736,2.73,2.723,2.71,2.703,2.696,2.69,2.677,2.67,2.658,2.651,2.645,2.632,2.626,2.62,2.608,2.601,2.595,2.583,2.577,2.571,2.559,2.553,2.548,2.542,2.53,2.524,2.519,2.513,2.507,2.502,2.502,2.502,2.496,2.496,2.496,2.496,2.49,2.485,2.479,2.468,2.457,2.452,2.436,2.43,2.42,2.409,2.399,2.394,2.388,2.383,2.378,2.373,2.368,2.363
3.222,3.231,3.231,3.231,3.231,3.231,3.24,3.24,3.24,3.24,3.231,3.231,3.231,3.222,3.222,3.212,3.212,3.203,3.203,3.203,3.203,3.203,3.203,3.203,3.212,3.212,3.212,3.222,3.222,3.222,3.231,3.231,3.231,3.231,3.231,3.24,3.231,3.231,3.24,3.24,3.24,3.231,3.231,3.222,3.222,3.212,3.203,3.203,3.203,3.203,3.203,3.203,3.203,3.203,3.203,3.212,3.212,3.222,3.222,3.222,3.231,3.231,3.231,3.231,3.231,3.231,3.231,3.231,3.231,3.231,3.231,3.231,3.231,3.231,3.231,3.231,3.231,3.231,3.231,3.231,3.231,3.231,3.231,3.231,3.231,3.231,3.231,3.231,3.231,3.24,3.24,3.24,3.25,3.259,3.269,3.279,3.279,3.288,3.298,3.298,3.298,3.298,3.298,3.288,3.288,3.279,3.279,3.269,3.259,3.25,3.25,3.24,3.24,3.24,3.24,3.24,3.25,3.25,3.269,3.279,3.279,3.288,3.298,3.308,3.308,3.318,3.318,3.328,3.328,3.338,3.338,3.338,3.338,3.338,3.338,3.338,3.348,3.348,3.348,3.348,3.348,3.348,3.348,3.338,3.338,3.338,3.338,3.348,3.348,3.348,3.348,3.348,3.348,3.358,3.358,3.358,3.368,3.379,3.379,3.379,3.379,3.379,3.389,3.389,3.389,3.389,3.399,3.399,3.399,3.41,3.42,3.42,3.431,3.431,3.442,3.442,3.452,3.463,3.463,3.463,3.463,3.463,3.463,3.463,3.452,3.452,3.452,3.452,3.452,3.452,3.442,3.442,3.442,3.442,3.442,3.431,3.431,3.431,3.431,3.42,3.42,3.42,3.42,3.431,3.442,3.442,3.442,3.442,3.442,3.452,3.452,3.463,3.463,3.463,3.463,3.463,3.463,3.463,3.463,3.452,3.442,3.442,3.442,3.442,3.431,3.431,3.431,3.442,3.442,3.431,3.431,3.431,3.431,3.431,3.431,3.431,3.431,3.431,3.431,3.431,3.431,3.431,3.442,3.442,3.442,3.452,3.452,3.463,3.463,3.463,3.474,3.474,3.474,3.474,3.474,3.463,3.463,3.463,3.463,3.463,3.463,3.463,3.463,3.463,3.463,3.474,3.474,3.474,3.474,3.463,3.452,3.452,3.442,3.442,3.442,3.431,3.431,3.431,3.442,3.452,3.452,3.452,3.452,3.463,3.463,3.474,3.474,3.474,3.474,3.485,3.485,3.485,3.485,3.485,3.485,3.485,3.485,3.485,3.485,3.496,3.496,3.496,3.496,3.485,3.485,3.485,3.485,3.485,3.485,3.485,3.474,3.474,3.463,3.463,3.463,3.463,3.463,3.474,3.485,3.485,3.485,3.496,3.496,3.496,3.496,3.507,3.507,3.507,3.507,3.496,3.496,3.485,3.485,3.474,3.463,3.463,3.463,3.463,3.463,3.463,3.463,3.463,3.463,3.463,3.474,3.474,3.474,3.485,3.485,3.485,3.485,3.485,3.496,3.496,3.496,3.496,3.485,3.485,3.485,3.485,3.474,3.463,3.463,3.463,3.463,3.463,3.463,3.463,3.474,3.485,3.485,3.496,3.496,3.496,3.507,3.507,3.507,3.507,3.507,3.507,3.507,3.507,3.507,3.496,3.496,3.485,3.474,3.474,3.474,3.463,3.452,3.452,3.442,3.431,3.42,3.41,3.399,3.379,3.368,3.348,3.338,3.318,3.298,3.288,3.269,3.25,3.24,3.231,3.212,3.194,3.185,3.175,3.157,3.148,3.139,3.131,3.122,3.104,3.096,3.087,3.078,3.07,3.061,3.045,3.036,3.028,3.028,3.02,3.011,3.003,2.995,2.995,2.987,2.979,2.971,2.963,2.955,2.947,2.932,2.916,2.909,2.894,2.871,2.856,2.849,2.834,2.82,2.813,2.806,2.799,2.791,2.784,2.784,2.777,2.771,2.764,2.757,2.75,2.743,2.73,2.723,2.716,2.71,2.703,2.69,2.683,2.67,2.664,2.658,2.645,2.639,2.632,2.62,2.614,2.608,2.595,2.589,2.583,2.571,2.565,2.559,2.553,2.542,2.536,2.53,2.524,2.519,2.513,2.507,2.507,2.502,2.496,2.502,2.496,2.496,2.49,2.485,2.479,2.468,2.463,2.452,2.436,2.43,2.42,2.409,2.399,2.394,2.388,2.383,2.378,2.378,2.373,2.368
3.231,3.231,3.231,3.231,3.231,3.231,3.24,3.24,3.231,3.231,3.231,3.231,3.231,3.222,3.222,3.212,3.212,3.212,3.212,3.212,3.212,3.203,3.203,3.212,3.212,3.212,3.222,3.222,3.222,3.222,3.222,3.231,3.231,3.231,3.231,3.231,3.231,3.231,3.24,3.24,3.24,3.24,3.231,3.222,3.222,3.212,3.203,3.203,3.203,3.194,3.203,3.203,3.203,3.203,3.212,3.212,3.212,3.222,3.222,3.231,3.231,3.231,3.231,3.231,3.231,3.231,3.231,3.231,3.231,3.231,3.231,3.231,3.231,3.24,3.24,3.24,3.24,3.24,3.24,3.24,3.24,3.231,3.231,3.231,3.231,3.231,3.231,3.24,3.24,3.24,3.24,3.25,3.25,3.259,3.269,3.279,3.279,3.288,3.298,3.298,3.298,3.298,3.298,3.288,3.288,3.279,3.269,3.269,3.259,3.25,3.25,3.24,3.24,3.24,3.24,3.24,3.25,3.259,3.269,3.279,3.279,3.288,3.298,3.308,3.318,3.318,3.328,3.328,3.338,3.338,3.348,3.348,3.348,3.348,3.348,3.348,3.348,3.348,3.348,3.358,3.348,3.348,3.348,3.348,3.348,3.348,3.348,3.348,3.348,3.348,3.348,3.348,3.358,3.358,3.358,3.368,3.368,3.368,3.379,3.379,3.379,3.379,3.389,3.389,3.389,3.389,3.399,3.399,3.399,3.41,3.42,3.431,3.442,3.442,3.442,3.452,3.463,3.463,3.463,3.463,3.463,3.463,3.463,3.463,3.452,3.452,3.452,3.442,3.442,3.442,3.442,3.442,3.442,3.442,3.442,3.431,3.431,3.431,3.42,3.42,3.42,3.42,3.431,3.431,3.442,3.442,3.442,3.452,3.452,3.452,3.452,3.463,3.463,3.463,3.463,3.463,3.463,3.463,3.463,3.463,3.452,3.452,3.452,3.442,3.442,3.442,3.442,3.442,3.442,3.442,3.442,3.442,3.442,3.431,3.431,3.431,3.431,3.431,3.431,3.431,3.431,3.431,3.442,3.442,3.452,3.452,3.463,3.463,3.463,3.474,3.485,3.474,3.474,3.474,3.474,3.474,3.463,3.463,3.463,3.452,3.452,3.463,3.463,3.463,3.463,3.463,3.474,3.474,3.474,3.463,3.463,3.452,3.452,3.442,3.442,3.442,3.442,3.442,3.452,3.452,3.452,3.452,3.463,3.463,3.463,3.474,3.485,3.485,3.485,3.485,3.485,3.485,3.485,3.485,3.485,3.485,3.485,3.485,3.485,3.485,3.485,3.485,3.485,3.485,3.485,3.485,3.485,3.485,3.485,3.485,3.485,3.485,3.474,3.474,3.474,3.474,3.485,3.485,3.485,3.485,3.496,3.507,3.507,3.507,3.507,3.507,3.507,3.507,3.507,3.507,3.496,3.496,3.485,3.485,3.474,3.463,3.463,3.463,3.463,3.463,3.463,3.474,3.474,3.474,3.474,3.474,3.485,3.485,3.485,3.485,3.485,3.496,3.496,3.496,3.496,3.496,3.485,3.485,3.485,3.485,3.474,3.463,3.463,3.463,3.463,3.463,3.463,3.463,3.474,3.485,3.496,3.496,3.496,3.496,3.507,3.507,3.507,3.507,3.507,3.507,3.507,3.507,3.507,3.496,3.496,3.485,3.474,3.474,3.463,3.463,3.452,3.452,3.442,3.431,3.42,3.41,3.399,3.379,3.368,3.358,3.338,3.318,3.298,3.288,3.269,3.25,3.24,3.222,3.212,3.194,3.185,3.166,3.157,3.148,3.139,3.131,3.113,3.104,3.096,3.087,3.078,3.07,3.053,3.045,3.036,3.028,3.02,3.02,3.011,3.003,2.995,2.987,2.987,2.979,2.971,2.963,2.955,2.947,2.932,2.916,2.909,2.894,2.878,2.864,2.849,2.834,2.827,2.813,2.806,2.799,2.791,2.791,2.784,2.777,2.771,2.764,2.757,2.75,2.743,2.736,2.73,2.716,2.716,2.703,2.696,2.69,2.677,2.67,2.658,2.651,2.645,2.632,2.626,2.62,2.608,2.601,2.589,2.583,2.577,2.571,2.559,2.553,2.548,2.542,2.536,2.524,2.519,2.513,2.507,2.507,2.507,2.502,2.502,2.496,2.496,2.49,2.485,2.479,2.468,2.463,2.452,2.441,2.43,2.42,2.409,2.399,2.394,2.388,2.383,2.383,2.378,2.373,2.368
3.231,3.231,3.231,3.231,3.231,3.24,3.24,3.24,3.231,3.231,3.231,3.231,3.222,3.222,3.222,3.212,3.212,3.212,3.212,3.212,3.212,3.203,3.203,3.212,3.212,3.212,3.212,3.222,3.222,3.222,3.222,3.222,3.222,3.231,3.231,3.231,3.231,3.231,3.24,3.24,3.24,3.24,3.231,3.231,3.222,3.222,3.212,3.203,3.203,3.203,3.203,3.203,3.203,3.212,3.212,3.212,3.222,3.222,3.231,3.231,3.231,3.231,3.231,3.231,3.231,3.24,3.24,3.24,3.24,3.24,3.24,3.24,3.24,3.24,3.24,3.24,3.24,3.24,3.24,3.24,3.24,3.24,3.24,3.24,3.24,3.231,3.24,3.24,3.24,3.25,3.25,3.25,3.259,3.259,3.269,3.279,3.288,3.288,3.298,3.298,3.298,3.298,3.288,3.288,3.279,3.279,3.269,3.259,3.25,3.25,3.231,3.231,3.231,3.231,3.24,3.24,3.25,3.259,3.279,3.288,3.298,3.298,3.308,3.318,3.318,3.328,3.338,3.338,3.338,3.348,3.348,3.358,3.358,3.358,3.358,3.358,3.358,3.358,3.358,3.358,3.358,3.348,3.348,3.348,3.348,3.348,3.348,3.348,3.348,3.348,3.358,3.358,3.358,3.358,3.368,3.368,3.368,3.379,3.379,3.379,3.379,3.379,3.379,3.379,3.389,3.389,3.399,3.399,3.399,3.41,3.42,3.431,3.442,3.442,3.442,3.452,3.463,3.463,3.463,3.463,3.463,3.463,3.463,3.452,3.452,3.442,3.442,3.442,3.442,3.442,3.442,3.442,3.431,3.431,3.431,3.42,3.42,3.42,3.42,3.42,3.42,3.42,3.431,3.442,3.442,3.442,3.452,3.452,3.452,3.463,3.463,3.463,3.463,3.463,3.463,3.474,3.463,3.463,3.463,3.463,3.463,3.463,3.452,3.452,3.442,3.452,3.452,3.452,3.452,3.452,3.452,3.442,3.442,3.442,3.442,3.442,3.431,3.431,3.431,3.442,3.442,3.442,3.442,3.442,3.452,3.452,3.463,3.463,3.463,3.474,3.485,3.485,3.485,3.485,3.485,3.474,3.474,3.463,3.463,3.463,3.463,3.463,3.463,3.463,3.463,3.463,3.474,3.474,3.474,3.463,3.463,3.463,3.452,3.452,3.452,3.452,3.442,3.452,3.452,3.463,3.463,3.463,3.474,3.474,3.474,3.485,3.485,3.485,3.485,3.485,3.485,3.485,3.474,3.474,3.485,3.485,3.485,3.485,3.485,3.485,3.485,3.485,3.485,3.485,3.485,3.485,3.485,3.485,3.485,3.485,3.485,3.485,3.485,3.485,3.485,3.485,3.485,3.496,3.496,3.496,3.507,3.507,3.507,3.507,3.507,3.518,3.518,3.518,3.518,3.507,3.507,3.507,3.496,3.485,3.485,3.474,3.474,3.474,3.474,3.474,3.474,3.474,3.474,3.485,3.485,3.485,3.485,3.485,3.485,3.496,3.496,3.496,3.496,3.496,3.496,3.496,3.485,3.485,3.485,3.474,3.474,3.463,3.463,3.463,3.463,3.463,3.463,3.463,3.474,3.485,3.485,3.496,3.496,3.496,3.507,3.507,3.507,3.507,3.507,3.507,3.507,3.507,3.507,3.496,3.485,3.485,3.474,3.474,3.463,3.463,3.452,3.442,3.442,3.431,3.42,3.41,3.399,3.379,3.368,3.358,3.338,3.318,3.308,3.288,3.269,3.259,3.24,3.231,3.212,3.194,3.185,3.166,3.157,3.148,3.139,3.122,3.104,3.096,3.087,3.078,3.07,3.061,3.053,3.045,3.036,3.028,3.02,3.011,3.003,3.003,2.995,2.987,2.979,2.971,2.971,2.963,2.955,2.947,2.932,2.916,2.909,2.894,2.878,2.864,2.849,2.834,2.827,2.813,2.806,2.799,2.791,2.791,2.784,2.777,2.771,2.764,2.757,2.757,2.75,2.736,2.73,2.723,2.716,2.71,2.703,2.69,2.683,2.67,2.664,2.651,2.645,2.639,2.626,2.62,2.614,2.601,2.595,2.589,2.577,2.571,2.565,2.559,2.553,2.548,2.536,2.53,2.524,2.519,2.513,2.507,2.507,2.502,2.502,2.496,2.496,2.49,2.485,2.479,2.468,2.463,2.446,2.441,2.43,2.42,2.409,2.404,2.399,2.394,2.388,2.383,2.378,2.373,2.368
3.24,3.24,3.24,3.24,3.24,3.24,3.24,3.24,3.231,3.231,3.231,3.231,3.231,3.222,3.222,3.222,3.222,3.212,3.212,3.212,3.212,3.212,3.212,3.212,3.212,3.212,3.212,3.212,3.212,3.222,3.222,3.222,3.222,3.222,3.231,3.231,3.231,3.231,3.24,3.24,3.24,3.24,3.24,3.231,3.222,3.222,3.212,3.203,3.203,3.203,3.203,3.203,3.212,3.212,3.212,3.222,3.222,3.231,3.231,3.24,3.24,3.24,3.24,3.24,3.24,3.24,3.24,3.24,3.24,3.24,3.24,3.24,3.24,3.24,3.24,3.24,3.24,3.24,3.24,3.24,3.24,3.24,3.24,3.24,3.24,3.24,3.24,3.24,3.25,3.25,3.259,3.259,3.259,3.269,3.269,3.279,3.288,3.288,3.298,3.298,3.298,3.288,3.288,3.288,3.279,3.269,3.269,3.259,3.25,3.231,3.231,3.231,3.231,3.231,3.24,3.24,3.25,3.269,3.279,3.288,3.298,3.308,3.308,3.318,3.328,3.328,3.338,3.348,3.348,3.348,3.358,3.358,3.358,3.358,3.368,3.368,3.368,3.358,3.358,3.358,3.358,3.358,3.358,3.358,3.358,3.358,3.358,3.358,3.358,3.358,3.358,3.358,3.368,3.368,3.368,3.368,3.379,3.379,3.379,3.379,3.379,3.379,3.379,3.379,3.389,3.389,3.389,3.399,3.399,3.41,3.42,3.431,3.442,3.442,3.442,3.452,3.452,3.452,3.452,3.452,3.452,3.452,3.442,3.442,3.442,3.442,3.442,3.442,3.431,3.431,3.431,3.431,3.431,3.431,3.42,3.42,3.42,3.42,3.42,3.42,3.42,3.431,3.431,3.442,3.442,3.442,3.452,3.452,3.463,3.463,3.463,3.463,3.463,3.463,3.463,3.474,3.463,3.463,3.463,3.463,3.463,3.463,3.463,3.463,3.452,3.463,3.463,3.463,3.463,3.463,3.463,3.452,3.452,3.452,3.442,3.442,3.442,3.442,3.442,3.442,3.442,3.442,3.442,3.452,3.452,3.452,3.463,3.463,3.474,3.474,3.485,3.485,3.485,3.485,3.485,3.485,3.474,3.474,3.463,3.463,3.463,3.463,3.463,3.463,3.463,3.474,3.474,3.474,3.474,3.463,3.463,3.463,3.463,3.463,3.463,3.463,3.463,3.463,3.463,3.463,3.474,3.474,3.474,3.485,3.485,3.485,3.485,3.485,3.485,3.485,3.485,3.485,3.485,3.485,3.485,3.485,3.485,3.485,3.485,3.485,3.485,3.485,3.485,3.485,3.485,3.485,3.485,3.485,3.485,3.485,3.485,3.485,3.485,3.485,3.496,3.496,3.496,3.496,3.507,3.507,3.507,3.518,3.518,3.518,3.518,3.518,3.529,3.518,3.518,3.518,3.518,3.507,3.507,3.496,3.485,3.485,3.485,3.485,3.485,3.485,3.485,3.485,3.485,3.485,3.485,3.485,3.485,3.485,3.496,3.496,3.496,3.496,3.496,3.496,3.496,3.485,3.485,3.485,3.485,3.474,3.474,3.463,3.463,3.463,3.463,3.463,3.463,3.463,3.474,3.485,3.496,3.496,3.496,3.496,3.507,3.507,3.507,3.507,3.507,3.507,3.507,3.507,3.507,3.496,3.485,3.485,3.474,3.463,3.463,3.452,3.442,3.442,3.431,3.431,3.42,3.41,3.399,3.379,3.368,3.358,3.338,3.328,3.308,3.288,3.269,3.259,3.24,3.222,3.212,3.194,3.175,3.166,3.157,3.139,3.131,3.113,3.104,3.096,3.087,3.078,3.07,3.061,3.045,3.036,3.028,3.02,3.011,3.011,3.003,2.995,2.987,2.987,2.979,2.971,2.963,2.955,2.947,2.94,2.932,2.916,2.901,2.894,2.871,2.856,2.849,2.834,2.827,2.813,2.806,2.799,2.791,2.791,2.784,2.777,2.771,2.764,2.764,2.757,2.75,2.743,2.736,2.73,2.723,2.71,2.703,2.696,2.683,2.677,2.664,2.658,2.645,2.639,2.626,2.62,2.608,2.601,2.595,2.589,2.583,2.577,2.565,2.559,2.553,2.548,2.542,2.53,2.524,2.519,2.513,2.507,2.507,2.502,2.502,2.496,2.49,2.49,2.485,2.479,2.468,2.457,2.446,2.441,2.43,2.42,2.409,2.404,2.399,2.394,2.388,2.383,2.378,2.378,2.373
3.24,3.24,3.24,3.24,3.24,3.24,3.24,3.24,3.24,3.24,3.231,3.231,3.231,3.231,3.231,3.222,3.222,3.222,3.212,3.212,3.212,3.212,3.203,3.212,3.203,3.212,3.212,3.212,3.212,3.212,3.222,3.222,3.222,3.222,3.222,3.231,3.231,3.231,3.24,3.24,3.24,3.24,3.24,3.231,3.231,3.222,3.222,3.212,3.203,3.203,3.203,3.203,3.212,3.212,3.222,3.222,3.231,3.231,3.24,3.24,3.24,3.24,3.25,3.25,3.25,3.25,3.25,3.25,3.25,3.25,3.25,3.25,3.25,3.25,3.25,3.25,3.25,3.25,3.24,3.24,3.24,3.24,3.24,3.24,3.25,3.24,3.24,3.25,3.25,3.25,3.259,3.259,3.269,3.269,3.279,3.279,3.288,3.288,3.288,3.288,3.288,3.288,3.288,3.279,3.269,3.259,3.259,3.25,3.24,3.231,3.222,3.222,3.222,3.222,3.231,3.24,3.25,3.269,3.279,3.288,3.298,3.308,3.308,3.318,3.328,3.338,3.338,3.348,3.358,3.358,3.358,3.368,3.368,3.368,3.368,3.368,3.368,3.368,3.368,3.368,3.368,3.368,3.358,3.358,3.358,3.358,3.368,3.368,3.368,3.368,3.368,3.368,3.379,3.379,3.379,3.379,3.379,3.379,3.379,3.379,3.379,3.379,3.379,3.379,3.389,3.389,3.389,3.399,3.399,3.41,3.42,3.42,3.431,3.431,3.442,3.442,3.442,3.442,3.442,3.442,3.442,3.442,3.442,3.442,3.442,3.431,3.431,3.431,3.431,3.431,3.42,3.42,3.42,3.42,3.42,3.42,3.42,3.42,3.42,3.42,3.42,3.42,3.431,3.442,3.442,3.442,3.452,3.452,3.452,3.452,3.452,3.452,3.463,3.463,3.463,3.463,3.463,3.463,3.474,3.474,3.474,3.474,3.463,3.463,3.463,3.463,3.463,3.463,3.463,3.463,3.463,3.463,3.463,3.452,3.452,3.452,3.442,3.442,3.442,3.442,3.442,3.442,3.442,3.452,3.452,3.452,3.463,3.463,3.474,3.485,3.485,3.485,3.485,3.485,3.496,3.485,3.485,3.474,3.474,3.463,3.463,3.463,3.463,3.463,3.463,3.474,3.474,3.474,3.474,3.474,3.463,3.463,3.463,3.463,3.463,3.463,3.463,3.463,3.474,3.474,3.474,3.485,3.485,3.485,3.485,3.496,3.496,3.496,3.485,3.485,3.485,3.485,3.485,3.485,3.485,3.485,3.485,3.485,3.485,3.485,3.485,3.485,3.485,3.485,3.485,3.485,3.485,3.485,3.485,3.485,3.496,3.496,3.496,3.496,3.496,3.507,3.507,3.507,3.507,3.507,3.518,3.518,3.529,3.529,3.529,3.529,3.529,3.529,3.529,3.518,3.518,3.518,3.507,3.507,3.496,3.496,3.496,3.485,3.496,3.496,3.496,3.496,3.496,3.496,3.496,3.496,3.496,3.496,3.496,3.496,3.496,3.496,3.496,3.496,3.496,3.485,3.485,3.485,3.485,3.474,3.474,3.463,3.463,3.463,3.463,3.463,3.463,3.474,3.474,3.485,3.485,3.485,3.496,3.496,3.507,3.507,3.507,3.496,3.496,3.507,3.507,3.507,3.496,3.485,3.485,3.474,3.474,3.463,3.463,3.452,3.442,3.431,3.431,3.431,3.42,3.41,3.389,3.379,3.368,3.358,3.338,3.328,3.308,3.288,3.269,3.259,3.24,3.222,3.212,3.194,3.175,3.166,3.157,3.139,3.122,3.113,3.096,3.087,3.078,3.07,3.061,3.053,3.045,3.036,3.028,3.02,3.011,3.003,2.995,2.987,2.987,2.979,2.971,2.963,2.955,2.955,2.947,2.94,2.924,2.916,2.901,2.886,2.871,2.856,2.849,2.834,2.82,2.813,2.806,2.799,2.791,2.791,2.784,2.777,2.777,2.771,2.764,2.757,2.757,2.743,2.736,2.73,2.723,2.716,2.703,2.696,2.683,2.677,2.664,2.658,2.645,2.632,2.626,2.62,2.608,2.601,2.595,2.589,2.583,2.577,2.571,2.559,2.553,2.548,2.542,2.536,2.53,2.524,2.519,2.513,2.507,2.502,2.496,2.496,2.49,2.485,2.479,2.474,2.463,2.457,2.446,2.436,2.43,2.42,2.409,2.404,2.399,2.394,2.388,2.383,2.383,2.378,2.373
3.25,3.25,3.25,3.25,3.25,3.25,3.25,3.24,3.24,3.24,3.24,3.231,3.231,3.231,3.231,3.222,3.222,3.222,3.212,3.212,3.212,3.203,3.203,3.203,3.203,3.203,3.203,3.203,3.203,3.203,3.212,3.212,3.222,3.222,3.222,3.231,3.231,3.231,3.24,3.24,3.24,3.24,3.24,3.24,3.231,3.222,3.222,3.212,3.212,3.203,3.212,3.212,3.212,3.212,3.222,3.231,3.231,3.24,3.24,3.24,3.24,3.25,3.25,3.25,3.25,3.259,3.259,3.259,3.25,3.25,3.25,3.25,3.25,3.25,3.25,3.25,3.25,3.25,3.24,3.24,3.24,3.24,3.24,3.24,3.25,3.24,3.25,3.25,3.25,3.25,3.259,3.259,3.269,3.269,3.279,3.279,3.288,3.288,3.288,3.288,3.288,3.288,3.279,3.279,3.269,3.259,3.25,3.24,3.231,3.222,3.212,3.212,3.212,3.222,3.231,3.24,3.25,3.269,3.279,3.288,3.298,3.308,3.318,3.328,3.338,3.338,3.348,3.358,3.358,3.368,3.379,3.379,3.379,3.389,3.379,3.379,3.379,3.379,3.368,3.368,3.368,3.368,3.368,3.368,3.368,3.368,3.368,3.368,3.368,3.379,3.379,3.379,3.379,3.389,3.389,3.389,3.389,3.389,3.379,3.379,3.379,3.379,3.379,3.379,3.389,3.389,3.389,3.399,3.399,3.399,3.42,3.42,3.42,3.42,3.431,3.442,3.442,3.442,3.442,3.431,3.431,3.431,3.431,3.431,3.431,3.431,3.42,3.42,3.42,3.42,3.42,3.42,3.42,3.42,3.42,3.42,3.42,3.42,3.42,3.42,3.42,3.42,3.431,3.442,3.442,3.442,3.452,3.452,3.452,3.452,3.452,3.452,3.452,3.463,3.463,3.463,3.463,3.463,3.474,3.485,3.485,3.474,3.474,3.474,3.474,3.474,3.474,3.474,3.474,3.474,3.463,3.463,3.463,3.463,3.463,3.452,3.452,3.452,3.452,3.452,3.452,3.442,3.452,3.452,3.452,3.463,3.463,3.463,3.474,3.485,3.485,3.496,3.496,3.496,3.496,3.496,3.485,3.485,3.474,3.474,3.474,3.474,3.474,3.463,3.474,3.474,3.474,3.474,3.474,3.474,3.463,3.474,3.474,3.474,3.474,3.474,3.474,3.474,3.485,3.485,3.485,3.485,3.485,3.485,3.496,3.496,3.496,3.496,3.496,3.496,3.485,3.485,3.485,3.485,3.485,3.485,3.485,3.485,3.485,3.485,3.485,3.485,3.485,3.485,3.485,3.485,3.485,3.485,3.485,3.485,3.496,3.496,3.496,3.496,3.507,3.507,3.507,3.507,3.507,3.518,3.518,3.529,3.529,3.529,3.529,3.529,3.529,3.529,3.529,3.529,3.518,3.518,3.518,3.507,3.507,3.507,3.496,3.496,3.496,3.507,3.507,3.507,3.507,3.507,3.507,3.507,3.507,3.507,3.507,3.507,3.496,3.496,3.496,3.496,3.485,3.485,3.485,3.485,3.474,3.474,3.463,3.463,3.463,3.463,3.463,3.463,3.463,3.474,3.485,3.485,3.485,3.485,3.496,3.496,3.496,3.507,3.507,3.496,3.496,3.507,3.507,3.507,3.507,3.485,3.485,3.474,3.463,3.463,3.463,3.442,3.442,3.431,3.431,3.42,3.42,3.41,3.389,3.379,3.368,3.358,3.338,3.328,3.308,3.288,3.269,3.259,3.24,3.222,3.212,3.194,3.175,3.166,3.148,3.139,3.122,3.104,3.087,3.078,3.07,3.061,3.053,3.045,3.036,3.028,3.02,3.011,3.003,2.995,2.995,2.987,2.979,2.971,2.963,2.963,2.955,2.947,2.94,2.932,2.916,2.909,2.894,2.878,2.864,2.856,2.842,2.834,2.82,2.813,2.806,2.799,2.791,2.791,2.784,2.777,2.777,2.771,2.764,2.757,2.757,2.75,2.736,2.73,2.723,2.71,2.703,2.696,2.683,2.67,2.664,2.651,2.639,2.632,2.626,2.614,2.608,2.601,2.595,2.589,2.583,2.577,2.571,2.565,2.559,2.553,2.542,2.536,2.53,2.524,2.519,2.513,2.507,2.502,2.496,2.49,2.49,2.485,2.479,2.468,2.463,2.452,2.446,2.436,2.425,2.42,2.409,2.404,2.399,2.394,2.388,2.383,2.383,2.378,2.373
3.25,3.25,3.259,3.259,3.259,3.25,3.25,3.25,3.25,3.24,3.24,3.24,3.231,3.231,3.231,3.231,3.222,3.222,3.212,3.212,3.212,3.203,3.203,3.203,3.203,3.203,3.203,3.203,3.203,3.203,3.203,3.212,3.222,3.222,3.222,3.222,3.231,3.24,3.24,3.24,3.24,3.24,3.24,3.24,3.24,3.231,3.222,3.222,3.222,3.212,3.212,3.212,3.222,3.222,3.231,3.231,3.24,3.24,3.24,3.25,3.25,3.25,3.259,3.259,3.259,3.259,3.259,3.259,3.259,3.259,3.259,3.259,3.259,3.259,3.25,3.25,3.25,3.25,3.25,3.24,3.24,3.24,3.24,3.24,3.25,3.25,3.25,3.25,3.25,3.259,3.259,3.259,3.269,3.269,3.279,3.279,3.279,3.279,3.288,3.279,3.279,3.279,3.279,3.269,3.259,3.25,3.24,3.222,3.222,3.212,3.203,3.203,3.212,3.212,3.231,3.24,3.25,3.269,3.279,3.288,3.298,3.308,3.318,3.338,3.338,3.348,3.348,3.358,3.368,3.379,3.379,3.379,3.389,3.389,3.389,3.379,3.379,3.379,3.379,3.379,3.379,3.379,3.379,3.379,3.379,3.379,3.379,3.379,3.379,3.379,3.389,3.389,3.389,3.389,3.389,3.389,3.389,3.389,3.389,3.379,3.379,3.379,3.379,3.379,3.389,3.379,3.389,3.389,3.399,3.399,3.41,3.42,3.42,3.42,3.42,3.431,3.431,3.431,3.42,3.42,3.42,3.42,3.42,3.42,3.42,3.42,3.42,3.42,3.42,3.42,3.42,3.42,3.42,3.42,3.42,3.42,3.42,3.42,3.42,3.42,3.42,3.42,3.431,3.431,3.442,3.442,3.442,3.442,3.442,3.442,3.442,3.442,3.442,3.452,3.452,3.463,3.463,3.463,3.474,3.485,3.485,3.485,3.485,3.485,3.485,3.485,3.485,3.485,3.485,3.474,3.474,3.474,3.463,3.463,3.463,3.463,3.463,3.463,3.452,3.452,3.452,3.452,3.452,3.452,3.452,3.463,3.463,3.463,3.474,3.485,3.485,3.496,3.496,3.496,3.496,3.496,3.485,3.485,3.485,3.474,3.474,3.474,3.474,3.463,3.474,3.474,3.474,3.474,3.474,3.474,3.474,3.474,3.474,3.474,3.474,3.485,3.485,3.485,3.485,3.485,3.485,3.485,3.485,3.496,3.496,3.496,3.496,3.496,3.496,3.496,3.485,3.485,3.485,3.485,3.485,3.485,3.485,3.485,3.485,3.485,3.485,3.485,3.485,3.485,3.485,3.485,3.485,3.485,3.485,3.485,3.496,3.496,3.496,3.507,3.507,3.507,3.507,3.507,3.518,3.518,3.518,3.529,3.529,3.529,3.529,3.529,3.529,3.529,3.529,3.529,3.518,3.518,3.518,3.518,3.507,3.507,3.507,3.507,3.507,3.507,3.507,3.507,3.507,3.507,3.507,3.507,3.507,3.507,3.507,3.507,3.496,3.496,3.496,3.485,3.485,3.485,3.485,3.474,3.474,3.474,3.463,3.463,3.463,3.463,3.463,3.463,3.463,3.474,3.474,3.485,3.485,3.485,3.496,3.496,3.496,3.496,3.496,3.496,3.507,3.507,3.507,3.507,3.507,3.496,3.485,3.474,3.463,3.463,3.463,3.442,3.442,3.431,3.431,3.42,3.41,3.399,3.389,3.379,3.368,3.348,3.338,3.318,3.308,3.288,3.269,3.259,3.24,3.222,3.212,3.194,3.175,3.166,3.148,3.131,3.113,3.096,3.087,3.078,3.07,3.061,3.053,3.045,3.036,3.028,3.02,3.003,3.003,2.995,2.987,2.979,2.979,2.971,2.963,2.955,2.947,2.94,2.932,2.924,2.909,2.901,2.886,2.871,2.864,2.849,2.842,2.834,2.82,2.813,2.806,2.799,2.791,2.791,2.784,2.777,2.777,2.771,2.764,2.757,2.757,2.743,2.736,2.73,2.723,2.71,2.703,2.69,2.677,2.67,2.658,2.651,2.639,2.632,2.626,2.614,2.608,2.595,2.595,2.589,2.583,2.577,2.571,2.565,2.559,2.553,2.548,2.536,2.53,2.524,2.519,2.513,2.507,2.502,2.496,2.49,2.485,2.479,2.474,2.468,2.457,2.452,2.446,2.436,2.425,2.42,2.409,2.404,2.399,2.394,2.388,2.388,2.383,2.378,2.368
3.259,3.259,3.259,3.259,3.259,3.259,3.259,3.259,3.25,3.25,3.25,3.24,3.24,3.24,3.231,3.231,3.222,3.222,3.212,3.212,3.203,3.203,3.203,3.203,3.203,3.203,3.203,3.203,3.203,3.203,3.203,3.212,3.222,3.222,3.222,3.231,3.24,3.24,3.24,3.24,3.24,3.24,3.24,3.24,3.24,3.231,3.222,3.222,3.222,3.222,3.222,3.222,3.222,3.231,3.231,3.24,3.24,3.24,3.25,3.25,3.25,3.259,3.259,3.259,3.269,3.269,3.269,3.269,3.269,3.269,3.269,3.259,3.259,3.259,3.259,3.259,3.25,3.25,3.25,3.25,3.25,3.25,3.25,3.25,3.25,3.25,3.25,3.25,3.259,3.259,3.259,3.259,3.269,3.269,3.279,3.279,3.279,3.279,3.279,3.279,3.279,3.269,3.269,3.259,3.25,3.24,3.231,3.222,3.212,3.203,3.203,3.203,3.203,3.212,3.222,3.24,3.25,3.269,3.279,3.288,3.308,3.318,3.328,3.338,3.338,3.348,3.358,3.358,3.368,3.379,3.379,3.379,3.389,3.389,3.389,3.389,3.389,3.379,3.389,3.389,3.389,3.389,3.379,3.379,3.389,3.389,3.389,3.389,3.389,3.389,3.389,3.399,3.399,3.399,3.399,3.399,3.399,3.399,3.389,3.389,3.379,3.379,3.379,3.379,3.389,3.379,3.389,3.389,3.399,3.399,3.399,3.41,3.41,3.41,3.42,3.42,3.42,3.42,3.42,3.41,3.41,3.41,3.41,3.42,3.42,3.42,3.42,3.42,3.42,3.42,3.42,3.42,3.42,3.42,3.42,3.42,3.42,3.42,3.42,3.42,3.42,3.42,3.431,3.431,3.431,3.442,3.442,3.442,3.442,3.442,3.431,3.431,3.442,3.442,3.442,3.452,3.463,3.463,3.474,3.485,3.485,3.485,3.485,3.485,3.485,3.485,3.485,3.485,3.485,3.485,3.474,3.474,3.474,3.463,3.463,3.463,3.463,3.463,3.463,3.463,3.463,3.452,3.452,3.452,3.463,3.463,3.463,3.463,3.474,3.485,3.485,3.496,3.496,3.507,3.507,3.496,3.496,3.485,3.485,3.485,3.485,3.474,3.474,3.474,3.474,3.474,3.474,3.474,3.474,3.474,3.474,3.474,3.474,3.474,3.474,3.485,3.485,3.485,3.485,3.485,3.485,3.485,3.485,3.485,3.485,3.485,3.496,3.496,3.496,3.496,3.485,3.485,3.485,3.485,3.485,3.485,3.485,3.485,3.485,3.485,3.485,3.485,3.485,3.485,3.485,3.485,3.485,3.485,3.485,3.485,3.496,3.496,3.507,3.507,3.507,3.507,3.507,3.507,3.518,3.518,3.518,3.529,3.529,3.529,3.529,3.529,3.529,3.529,3.529,3.518,3.518,3.518,3.518,3.518,3.507,3.507,3.507,3.507,3.507,3.518,3.518,3.518,3.507,3.518,3.507,3.507,3.507,3.507,3.507,3.507,3.496,3.496,3.496,3.485,3.485,3.485,3.485,3.474,3.474,3.463,3.463,3.463,3.463,3.463,3.463,3.463,3.463,3.474,3.474,3.474,3.485,3.485,3.485,3.496,3.496,3.496,3.496,3.496,3.496,3.507,3.507,3.507,3.507,3.496,3.485,3.474,3.463,3.463,3.463,3.452,3.442,3.431,3.431,3.42,3.41,3.399,3.389,3.379,3.368,3.348,3.338,3.318,3.298,3.288,3.269,3.259,3.24,3.222,3.212,3.194,3.175,3.157,3.139,3.131,3.113,3.096,3.078,3.07,3.061,3.053,3.045,3.036,3.028,3.02,3.011,3.003,2.995,2.995,2.987,2.979,2.971,2.963,2.955,2.947,2.94,2.932,2.924,2.916,2.909,2.894,2.886,2.871,2.864,2.849,2.842,2.827,2.82,2.813,2.806,2.799,2.791,2.791,2.784,2.777,2.777,2.771,2.764,2.757,2.75,2.743,2.736,2.73,2.723,2.71,2.703,2.69,2.677,2.67,2.658,2.651,2.639,2.632,2.62,2.614,2.608,2.595,2.589,2.583,2.583,2.577,2.571,2.565,2.559,2.553,2.548,2.536,2.53,2.524,2.519,2.513,2.507,2.496,2.49,2.485,2.485,2.479,2.474,2.463,2.457,2.446,2.441,2.436,2.425,2.42,2.414,2.404,2.399,2.394,2.394,2.388,2.383,2.378,2.368
3.259,3.259,3.269,3.269,3.269,3.269,3.269,3.259,3.259,3.259,3.25,3.25,3.24,3.24,3.24,3.231,3.222,3.222,3.212,3.212,3.203,3.203,3.203,3.203,3.203,3.203,3.203,3.203,3.203,3.203,3.203,3.212,3.222,3.222,3.222,3.231,3.24,3.24,3.25,3.25,3.25,3.24,3.24,3.24,3.24,3.231,3.231,3.231,3.222,3.222,3.222,3.231,3.231,3.231,3.24,3.24,3.24,3.25,3.25,3.25,3.259,3.259,3.259,3.269,3.269,3.269,3.269,3.269,3.269,3.269,3.269,3.269,3.259,3.259,3.259,3.259,3.259,3.25,3.25,3.25,3.25,3.25,3.25,3.25,3.25,3.25,3.25,3.25,3.259,3.259,3.259,3.259,3.259,3.269,3.279,3.279,3.279,3.279,3.279,3.279,3.269,3.269,3.269,3.259,3.25,3.231,3.231,3.222,3.212,3.203,3.203,3.203,3.212,3.222,3.231,3.24,3.259,3.269,3.279,3.298,3.308,3.318,3.328,3.338,3.348,3.348,3.358,3.368,3.368,3.379,3.379,3.379,3.389,3.389,3.389,3.389,3.389,3.389,3.389,3.389,3.389,3.389,3.389,3.389,3.389,3.389,3.389,3.389,3.389,3.399,3.399,3.399,3.399,3.399,3.399,3.399,3.399,3.399,3.389,3.389,3.389,3.379,3.379,3.379,3.389,3.379,3.389,3.389,3.389,3.399,3.399,3.399,3.399,3.399,3.41,3.41,3.41,3.41,3.399,3.399,3.399,3.399,3.399,3.41,3.41,3.41,3.42,3.42,3.42,3.42,3.42,3.42,3.42,3.42,3.42,3.42,3.42,3.42,3.42,3.42,3.42,3.42,3.42,3.431,3.431,3.431,3.431,3.431,3.431,3.431,3.431,3.431,3.431,3.442,3.442,3.452,3.452,3.463,3.474,3.485,3.496,3.485,3.496,3.496,3.496,3.496,3.496,3.496,3.485,3.485,3.485,3.474,3.474,3.463,3.463,3.463,3.463,3.463,3.463,3.463,3.463,3.452,3.452,3.452,3.463,3.463,3.463,3.463,3.474,3.474,3.485,3.485,3.496,3.496,3.496,3.496,3.485,3.485,3.485,3.485,3.485,3.474,3.474,3.463,3.474,3.474,3.474,3.463,3.463,3.474,3.474,3.463,3.474,3.474,3.474,3.474,3.485,3.474,3.474,3.474,3.485,3.485,3.485,3.485,3.485,3.485,3.485,3.496,3.496,3.496,3.496,3.485,3.485,3.485,3.485,3.485,3.485,3.485,3.485,3.485,3.485,3.485,3.485,3.485,3.485,3.485,3.485,3.485,3.485,3.485,3.485,3.496,3.507,3.507,3.507,3.507,3.507,3.507,3.518,3.518,3.518,3.518,3.529,3.529,3.529,3.529,3.529,3.518,3.518,3.518,3.518,3.518,3.518,3.518,3.518,3.507,3.507,3.507,3.518,3.518,3.518,3.518,3.518,3.518,3.518,3.518,3.507,3.507,3.507,3.507,3.496,3.496,3.485,3.485,3.485,3.485,3.474,3.463,3.463,3.463,3.463,3.463,3.463,3.463,3.463,3.463,3.463,3.474,3.474,3.474,3.474,3.485,3.485,3.485,3.496,3.496,3.496,3.496,3.496,3.496,3.507,3.507,3.507,3.485,3.485,3.474,3.463,3.463,3.463,3.452,3.442,3.431,3.431,3.42,3.41,3.399,3.389,3.379,3.358,3.348,3.328,3.318,3.298,3.279,3.269,3.25,3.24,3.222,3.203,3.185,3.166,3.148,3.139,3.122,3.104,3.087,3.078,3.07,3.061,3.053,3.045,3.036,3.028,3.02,3.011,3.003,2.995,2.987,2.987,2.979,2.971,2.963,2.955,2.947,2.94,2.932,2.924,2.909,2.901,2.894,2.878,2.871,2.856,2.849,2.834,2.827,2.82,2.813,2.806,2.799,2.791,2.791,2.784,2.777,2.777,2.771,2.764,2.757,2.75,2.743,2.736,2.723,2.716,2.71,2.696,2.69,2.677,2.664,2.658,2.645,2.639,2.626,2.62,2.614,2.608,2.595,2.589,2.583,2.583,2.577,2.571,2.565,2.559,2.553,2.542,2.536,2.53,2.524,2.513,2.507,2.502,2.496,2.49,2.485,2.479,2.474,2.468,2.463,2.457,2.452,2.441,2.436,2.425,2.42,2.414,2.409,2.404,2.399,2.394,2.388,2.383,2.378,2.373
3.259,3.269,3.269,3.269,3.269,3.269,3.269,3.269,3.269,3.259,3.259,3.259,3.25,3.25,3.24,3.24,3.231,3.222,3.212,3.212,3.212,3.203,3.203,3.203,3.203,3.203,3.203,3.203,3.203,3.203,3.212,3.222,3.222,3.231,3.231,3.24,3.24,3.25,3.25,3.25,3.25,3.25,3.25,3.25,3.25,3.24,3.231,3.231,3.231,3.231,3.231,3.231,3.231,3.231,3.24,3.24,3.24,3.25,3.25,3.25,3.259,3.259,3.259,3.269,3.269,3.269,3.269,3.269,3.269,3.269,3.269,3.269,3.269,3.269,3.259,3.259,3.259,3.259,3.259,3.25,3.25,3.25,3.25,3.25,3.25,3.25,3.25,3.25,3.259,3.259,3.259,3.259,3.259,3.269,3.269,3.279,3.279,3.269,3.269,3.269,3.269,3.269,3.269,3.259,3.25,3.24,3.231,3.222,3.212,3.203,3.212,3.203,3.212,3.222,3.231,3.25,3.259,3.269,3.288,3.298,3.308,3.318,3.328,3.338,3.338,3.348,3.358,3.368,3.368,3.379,3.379,3.379,3.389,3.389,3.389,3.389,3.389,3.389,3.389,3.389,3.389,3.389,3.389,3.389,3.389,3.399,3.399,3.399,3.399,3.399,3.41,3.41,3.41,3.41,3.41,3.399,3.399,3.399,3.399,3.389,3.389,3.389,3.389,3.379,3.389,3.379,3.379,3.389,3.389,3.389,3.399,3.399,3.399,3.399,3.399,3.399,3.399,3.389,3.389,3.389,3.389,3.389,3.389,3.399,3.399,3.399,3.41,3.42,3.42,3.42,3.42,3.42,3.42,3.431,3.431,3.42,3.42,3.42,3.42,3.42,3.42,3.42,3.42,3.42,3.431,3.431,3.42,3.42,3.42,3.42,3.42,3.42,3.431,3.431,3.442,3.442,3.452,3.463,3.474,3.485,3.496,3.496,3.496,3.496,3.507,3.507,3.507,3.507,3.496,3.485,3.485,3.485,3.474,3.474,3.463,3.463,3.463,3.463,3.463,3.463,3.463,3.463,3.452,3.452,3.452,3.463,3.463,3.463,3.463,3.474,3.474,3.485,3.485,3.485,3.496,3.485,3.485,3.485,3.485,3.485,3.485,3.474,3.474,3.463,3.463,3.463,3.463,3.463,3.463,3.463,3.463,3.463,3.463,3.463,3.463,3.474,3.474,3.474,3.474,3.474,3.474,3.485,3.485,3.485,3.485,3.485,3.485,3.485,3.485,3.496,3.496,3.485,3.485,3.485,3.496,3.496,3.485,3.485,3.485,3.485,3.485,3.485,3.485,3.485,3.485,3.485,3.485,3.485,3.485,3.485,3.485,3.496,3.496,3.507,3.507,3.507,3.507,3.507,3.518,3.518,3.518,3.518,3.518,3.518,3.518,3.518,3.518,3.518,3.518,3.518,3.518,3.518,3.507,3.518,3.507,3.518,3.518,3.518,3.518,3.518,3.518,3.518,3.518,3.518,3.518,3.507,3.507,3.507,3.507,3.507,3.496,3.496,3.485,3.485,3.485,3.485,3.474,3.463,3.463,3.463,3.463,3.463,3.463,3.463,3.463,3.463,3.463,3.474,3.474,3.474,3.474,3.474,3.485,3.485,3.485,3.496,3.496,3.496,3.496,3.496,3.507,3.507,3.507,3.485,3.485,3.474,3.463,3.463,3.463,3.452,3.442,3.431,3.431,3.42,3.42,3.399,3.389,3.379,3.358,3.338,3.328,3.308,3.298,3.279,3.269,3.25,3.24,3.222,3.203,3.185,3.166,3.148,3.131,3.113,3.104,3.087,3.07,3.061,3.053,3.045,3.036,3.036,3.028,3.02,3.011,3.003,2.995,2.995,2.987,2.979,2.971,2.963,2.955,2.947,2.94,2.932,2.916,2.909,2.901,2.894,2.878,2.871,2.856,2.849,2.834,2.827,2.82,2.813,2.806,2.799,2.791,2.791,2.784,2.777,2.771,2.771,2.764,2.757,2.75,2.743,2.736,2.723,2.716,2.703,2.696,2.683,2.677,2.664,2.651,2.645,2.632,2.62,2.614,2.608,2.601,2.595,2.589,2.583,2.577,2.577,2.571,2.565,2.559,2.548,2.542,2.536,2.524,2.519,2.513,2.502,2.496,2.49,2.485,2.479,2.474,2.474,2.468,2.457,2.452,2.446,2.441,2.43,2.425,2.42,2.414,2.409,2.404,2.399,2.394,2.388,2.383,2.378,2.373
3.259,3.269,3.269,3.269,3.279,3.279,3.279,3.279,3.269,3.269,3.269,3.259,3.259,3.25,3.25,3.24,3.231,3.222,3.222,3.212,3.212,3.203,3.203,3.203,3.203,3.203,3.203,3.203,3.203,3.212,3.212,3.222,3.231,3.231,3.231,3.24,3.25,3.25,3.259,3.259,3.25,3.25,3.25,3.25,3.25,3.25,3.24,3.24,3.231,3.231,3.231,3.231,3.231,3.231,3.24,3.24,3.24,3.25,3.25,3.259,3.259,3.259,3.269,3.269,3.269,3.279,3.279,3.279,3.279,3.279,3.279,3.279,3.269,3.269,3.269,3.269,3.269,3.259,3.259,3.259,3.259,3.259,3.259,3.259,3.25,3.25,3.25,3.259,3.259,3.259,3.259,3.259,3.269,3.269,3.269,3.269,3.269,3.269,3.269,3.269,3.269,3.269,3.259,3.259,3.25,3.24,3.231,3.231,3.212,3.212,3.212,3.222,3.222,3.222,3.24,3.25,3.269,3.279,3.288,3.298,3.308,3.318,3.328,3.328,3.338,3.348,3.358,3.358,3.368,3.368,3.379,3.379,3.389,3.389,3.389,3.389,3.389,3.389,3.389,3.389,3.389,3.389,3.389,3.399,3.399,3.399,3.399,3.41,3.41,3.41,3.41,3.41,3.41,3.41,3.41,3.399,3.399,3.399,3.399,3.389,3.389,3.389,3.389,3.389,3.389,3.389,3.389,3.389,3.389,3.389,3.399,3.399,3.389,3.389,3.389,3.389,3.389,3.389,3.389,3.389,3.389,3.389,3.389,3.389,3.399,3.399,3.41,3.42,3.42,3.42,3.42,3.431,3.42,3.431,3.431,3.42,3.42,3.42,3.42,3.42,3.42,3.42,3.42,3.42,3.42,3.42,3.42,3.42,3.42,3.42,3.41,3.41,3.42,3.431,3.431,3.442,3.452,3.463,3.474,3.485,3.496,3.496,3.496,3.507,3.507,3.507,3.507,3.507,3.496,3.485,3.485,3.485,3.474,3.463,3.463,3.463,3.463,3.463,3.463,3.463,3.463,3.452,3.452,3.452,3.452,3.452,3.452,3.463,3.463,3.463,3.463,3.474,3.485,3.485,3.485,3.485,3.485,3.485,3.485,3.485,3.474,3.474,3.474,3.463,3.463,3.463,3.463,3.463,3.463,3.463,3.463,3.463,3.463,3.463,3.463,3.463,3.474,3.474,3.463,3.463,3.474,3.474,3.485,3.485,3.485,3.485,3.485,3.485,3.485,3.496,3.485,3.485,3.485,3.485,3.496,3.496,3.485,3.485,3.485,3.485,3.485,3.485,3.485,3.485,3.485,3.485,3.485,3.485,3.485,3.485,3.485,3.496,3.496,3.507,3.507,3.507,3.507,3.507,3.507,3.507,3.507,3.507,3.518,3.518,3.518,3.518,3.518,3.518,3.518,3.518,3.518,3.507,3.507,3.507,3.507,3.518,3.518,3.518,3.518,3.518,3.518,3.518,3.518,3.518,3.507,3.507,3.507,3.507,3.507,3.496,3.496,3.485,3.485,3.485,3.485,3.474,3.474,3.463,3.463,3.463,3.463,3.463,3.463,3.463,3.463,3.463,3.474,3.474,3.474,3.474,3.485,3.485,3.485,3.485,3.485,3.496,3.496,3.496,3.496,3.496,3.507,3.507,3.496,3.485,3.485,3.474,3.463,3.463,3.463,3.452,3.442,3.431,3.431,3.431,3.41,3.399,3.389,3.368,3.358,3.338,3.318,3.308,3.288,3.279,3.269,3.25,3.24,3.222,3.203,3.185,3.166,3.148,3.131,3.113,3.096,3.087,3.07,3.061,3.053,3.045,3.036,3.028,3.028,3.02,3.011,3.003,2.995,2.995,2.987,2.979,2.963,2.955,2.955,2.947,2.94,2.924,2.916,2.909,2.901,2.894,2.878,2.871,2.856,2.849,2.842,2.827,2.82,2.82,2.813,2.806,2.799,2.791,2.784,2.777,2.777,2.764,2.764,2.757,2.75,2.736,2.73,2.723,2.716,2.703,2.696,2.683,2.67,2.664,2.651,2.639,2.626,2.62,2.614,2.608,2.601,2.595,2.589,2.583,2.577,2.571,2.565,2.559,2.559,2.548,2.542,2.536,2.524,2.519,2.513,2.502,2.496,2.49,2.485,2.479,2.474,2.468,2.463,2.457,2.452,2.446,2.436,2.43,2.425,2.42,2.414,2.409,2.404,2.399,2.394,2.388,2.388,2.383,2.378
3.269,3.269,3.269,3.279,3.279,3.279,3.279,3.279,3.279,3.279,3.269,3.269,3.259,3.259,3.25,3.24,3.231,3.222,3.222,3.212,3.212,3.203,3.203,3.203,3.203,3.203,3.203,3.212,3.212,3.212,3.222,3.231,3.231,3.24,3.24,3.25,3.25,3.259,3.259,3.259,3.259,3.25,3.25,3.25,3.25,3.24,3.24,3.231,3.231,3.231,3.231,3.231,3.231,3.231,3.231,3.24,3.24,3.25,3.25,3.259,3.259,3.269,3.269,3.269,3.279,3.279,3.279,3.279,3.279,3.279,3.279,3.279,3.279,3.279,3.279,3.269,3.269,3.269,3.269,3.269,3.259,3.259,3.259,3.259,3.259,3.259,3.259,3.259,3.259,3.259,3.259,3.259,3.259,3.269,3.269,3.269,3.269,3.269,3.269,3.269,3.269,3.259,3.259,3.259,3.25,3.24,3.24,3.231,3.231,3.222,3.231,3.231,3.231,3.24,3.25,3.259,3.269,3.279,3.288,3.298,3.308,3.318,3.318,3.328,3.338,3.348,3.348,3.358,3.368,3.368,3.368,3.379,3.389,3.389,3.389,3.389,3.389,3.389,3.389,3.399,3.399,3.399,3.399,3.399,3.399,3.399,3.41,3.41,3.41,3.41,3.41,3.41,3.41,3.41,3.41,3.41,3.399,3.399,3.399,3.399,3.389,3.389,3.389,3.389,3.389,3.389,3.389,3.389,3.389,3.389,3.389,3.389,3.389,3.389,3.389,3.389,3.389,3.379,3.379,3.379,3.379,3.379,3.389,3.389,3.389,3.399,3.399,3.41,3.42,3.42,3.42,3.431,3.431,3.431,3.431,3.42,3.431,3.431,3.42,3.42,3.42,3.42,3.42,3.42,3.42,3.42,3.42,3.42,3.42,3.41,3.41,3.41,3.42,3.431,3.431,3.442,3.442,3.463,3.474,3.485,3.496,3.496,3.496,3.507,3.507,3.518,3.507,3.507,3.496,3.485,3.485,3.485,3.474,3.463,3.463,3.463,3.452,3.463,3.452,3.452,3.452,3.452,3.442,3.442,3.452,3.452,3.452,3.452,3.463,3.463,3.463,3.474,3.474,3.474,3.485,3.485,3.474,3.474,3.474,3.474,3.474,3.463,3.463,3.463,3.463,3.463,3.463,3.463,3.463,3.463,3.463,3.463,3.463,3.463,3.463,3.463,3.474,3.463,3.463,3.463,3.463,3.474,3.474,3.474,3.474,3.474,3.474,3.485,3.485,3.485,3.485,3.485,3.485,3.485,3.485,3.485,3.485,3.485,3.485,3.485,3.485,3.485,3.485,3.485,3.485,3.485,3.485,3.485,3.485,3.485,3.485,3.485,3.496,3.496,3.507,3.507,3.507,3.507,3.507,3.507,3.507,3.507,3.507,3.518,3.518,3.518,3.518,3.518,3.518,3.518,3.518,3.507,3.507,3.507,3.507,3.507,3.507,3.507,3.507,3.507,3.518,3.507,3.507,3.507,3.507,3.507,3.507,3.507,3.507,3.496,3.485,3.485,3.485,3.485,3.474,3.474,3.474,3.463,3.463,3.463,3.463,3.463,3.463,3.463,3.463,3.474,3.474,3.474,3.474,3.485,3.485,3.485,3.485,3.485,3.485,3.496,3.496,3.496,3.496,3.496,3.507,3.507,3.496,3.496,3.485,3.474,3.474,3.463,3.463,3.452,3.442,3.442,3.431,3.42,3.41,3.399,3.379,3.368,3.348,3.338,3.318,3.298,3.288,3.279,3.259,3.25,3.24,3.222,3.203,3.185,3.166,3.148,3.131,3.113,3.104,3.087,3.078,3.061,3.053,3.045,3.036,3.028,3.02,3.02,3.011,3.003,2.995,2.995,2.987,2.979,2.971,2.963,2.955,2.947,2.94,2.924,2.916,2.909,2.901,2.894,2.878,2.871,2.856,2.849,2.842,2.834,2.827,2.82,2.813,2.806,2.799,2.791,2.791,2.784,2.777,2.771,2.764,2.757,2.75,2.736,2.73,2.723,2.716,2.703,2.696,2.683,2.67,2.658,2.651,2.639,2.626,2.62,2.614,2.608,2.601,2.595,2.589,2.583,2.577,2.571,2.565,2.559,2.553,2.548,2.542,2.53,2.524,2.519,2.507,2.502,2.496,2.49,2.479,2.474,2.468,2.463,2.463,2.457,2.452,2.441,2.436,2.43,2.425,2.414,2.409,2.409,2.404,2.399,2.394,2.394,2.388,2.383,2.378
3.269,3.269,3.279,3.279,3.279,3.288,3.288,3.288,3.288,3.279,3.279,3.269,3.269,3.259,3.25,3.24,3.231,3.222,3.222,3.212,3.212,3.212,3.203,3.203,3.203,3.212,3.212,3.212,3.212,3.222,3.231,3.24,3.24,3.25,3.25,3.259,3.259,3.259,3.259,3.259,3.259,3.259,3.25,3.25,3.25,3.24,3.24,3.231,3.231,3.231,3.231,3.231,3.231,3.231,3.231,3.231,3.24,3.24,3.24,3.25,3.259,3.269,3.269,3.269,3.279,3.279,3.279,3.288,3.288,3.288,3.288,3.288,3.288,3.288,3.279,3.279,3.279,3.269,3.269,3.269,3.269,3.269,3.259,3.259,3.259,3.259,3.269,3.269,3.269,3.269,3.269,3.269,3.269,3.269,3.269,3.269,3.259,3.259,3.269,3.269,3.259,3.259,3.259,3.259,3.259,3.25,3.24,3.24,3.24,3.24,3.24,3.24,3.25,3.25,3.259,3.259,3.269,3.279,3.288,3.298,3.308,3.318,3.328,3.328,3.338,3.348,3.348,3.358,3.358,3.368,3.368,3.379,3.379,3.379,3.379,3.389,3.389,3.389,3.389,3.399,3.399,3.399,3.399,3.399,3.399,3.41,3.41,3.41,3.41,3.41,3.41,3.41,3.41,3.41,3.41,3.41,3.399,3.399,3.399,3.399,3.389,3.389,3.389,3.389,3.389,3.389,3.389,3.389,3.389,3.389,3.389,3.389,3.389,3.389,3.389,3.389,3.379,3.379,3.379,3.379,3.379,3.379,3.379,3.389,3.389,3.399,3.399,3.41,3.42,3.42,3.42,3.431,3.431,3.431,3.431,3.431,3.431,3.431,3.42,3.42,3.42,3.42,3.42,3.42,3.42,3.42,3.42,3.42,3.41,3.41,3.41,3.41,3.42,3.42,3.431,3.431,3.442,3.452,3.463,3.474,3.485,3.496,3.496,3.507,3.507,3.507,3.507,3.507,3.496,3.485,3.485,3.474,3.474,3.463,3.463,3.452,3.452,3.452,3.452,3.452,3.452,3.442,3.442,3.442,3.442,3.442,3.452,3.452,3.452,3.463,3.463,3.463,3.463,3.474,3.474,3.474,3.463,3.463,3.463,3.463,3.463,3.463,3.463,3.452,3.463,3.463,3.463,3.463,3.463,3.463,3.463,3.463,3.463,3.463,3.463,3.463,3.463,3.463,3.463,3.463,3.463,3.463,3.463,3.474,3.463,3.463,3.474,3.485,3.485,3.485,3.485,3.485,3.485,3.485,3.485,3.485,3.485,3.485,3.485,3.485,3.485,3.485,3.485,3.485,3.474,3.485,3.485,3.485,3.485,3.485,3.485,3.485,3.496,3.496,3.496,3.507,3.507,3.507,3.507,3.507,3.507,3.507,3.507,3.507,3.507,3.507,3.507,3.518,3.518,3.518,3.507,3.507,3.507,3.507,3.507,3.507,3.507,3.507,3.507,3.507,3.507,3.507,3.507,3.507,3.496,3.496,3.496,3.496,3.496,3.496,3.485,3.485,3.485,3.485,3.474,3.474,3.474,3.463,3.463,3.474,3.463,3.463,3.463,3.474,3.474,3.474,3.474,3.485,3.485,3.485,3.485,3.485,3.485,3.485,3.485,3.496,3.496,3.496,3.507,3.507,3.507,3.507,3.496,3.496,3.485,3.485,3.474,3.463,3.463,3.452,3.442,3.442,3.431,3.42,3.41,3.399,3.379,3.368,3.348,3.338,3.318,3.298,3.288,3.279,3.259,3.25,3.24,3.222,3.212,3.194,3.175,3.157,3.139,3.122,3.104,3.087,3.078,3.061,3.053,3.045,3.036,3.028,3.02,3.02,3.011,3.003,3.003,2.995,2.987,2.979,2.971,2.963,2.955,2.947,2.94,2.932,2.916,2.909,2.901,2.894,2.886,2.871,2.864,2.856,2.849,2.842,2.834,2.827,2.82,2.813,2.806,2.799,2.791,2.784,2.777,2.771,2.764,2.757,2.743,2.736,2.73,2.723,2.71,2.703,2.69,2.677,2.67,2.658,2.645,2.632,2.626,2.62,2.614,2.608,2.601,2.595,2.589,2.583,2.577,2.571,2.565,2.559,2.553,2.548,2.542,2.53,2.524,2.519,2.507,2.502,2.496,2.49,2.479,2.474,2.474,2.468,2.463,2.457,2.452,2.441,2.436,2.43,2.425,2.414,2.409,2.409,2.404,2.399,2.399,2.394,2.388,2.383,2.378
3.269,3.269,3.279,3.279,3.288,3.288,3.288,3.288,3.288,3.279,3.279,3.269,3.269,3.259,3.25,3.25,3.231,3.231,3.222,3.222,3.212,3.212,3.212,3.212,3.212,3.212,3.212,3.222,3.222,3.231,3.24,3.24,3.25,3.259,3.259,3.259,3.269,3.269,3.269,3.259,3.259,3.259,3.25,3.25,3.25,3.24,3.24,3.231,3.231,3.231,3.231,3.231,3.222,3.231,3.231,3.231,3.24,3.24,3.24,3.25,3.259,3.259,3.269,3.269,3.279,3.279,3.279,3.288,3.288,3.288,3.288,3.288,3.288,3.288,3.288,3.288,3.279,3.279,3.279,3.279,3.279,3.279,3.279,3.269,3.269,3.269,3.269,3.269,3.269,3.269,3.269,3.269,3.269,3.269,3.269,3.269,3.269,3.269,3.269,3.269,3.269,3.269,3.259,3.259,3.259,3.259,3.25,3.25,3.25,3.25,3.25,3.259,3.259,3.259,3.259,3.269,3.279,3.288,3.298,3.298,3.308,3.318,3.328,3.338,3.338,3.348,3.348,3.358,3.358,3.358,3.368,3.379,3.379,3.379,3.379,3.389,3.389,3.389,3.389,3.399,3.399,3.399,3.399,3.41,3.41,3.41,3.41,3.41,3.41,3.42,3.42,3.42,3.42,3.42,3.41,3.41,3.41,3.41,3.41,3.41,3.41,3.399,3.399,3.399,3.399,3.399,3.399,3.389,3.389,3.389,3.389,3.389,3.389,3.389,3.389,3.389,3.379,3.379,3.368,3.368,3.379,3.379,3.379,3.389,3.389,3.399,3.399,3.41,3.42,3.42,3.42,3.431,3.42,3.431,3.431,3.431,3.431,3.431,3.431,3.42,3.42,3.42,3.42,3.42,3.42,3.42,3.42,3.42,3.41,3.41,3.41,3.41,3.42,3.42,3.431,3.431,3.442,3.442,3.463,3.463,3.485,3.485,3.496,3.496,3.496,3.507,3.507,3.507,3.496,3.485,3.485,3.474,3.463,3.463,3.452,3.452,3.442,3.442,3.442,3.442,3.442,3.442,3.442,3.442,3.442,3.442,3.442,3.452,3.452,3.452,3.463,3.463,3.463,3.463,3.474,3.463,3.463,3.463,3.463,3.463,3.463,3.452,3.452,3.452,3.452,3.463,3.463,3.463,3.463,3.463,3.463,3.463,3.463,3.463,3.463,3.463,3.463,3.463,3.463,3.463,3.463,3.463,3.463,3.463,3.463,3.463,3.463,3.474,3.485,3.485,3.485,3.485,3.485,3.485,3.485,3.485,3.485,3.485,3.485,3.485,3.485,3.485,3.474,3.474,3.474,3.474,3.485,3.474,3.485,3.485,3.485,3.485,3.485,3.485,3.496,3.496,3.496,3.507,3.507,3.507,3.507,3.507,3.507,3.507,3.507,3.507,3.507,3.518,3.518,3.518,3.507,3.507,3.507,3.507,3.507,3.507,3.507,3.507,3.507,3.507,3.507,3.507,3.496,3.496,3.496,3.485,3.496,3.496,3.496,3.485,3.485,3.485,3.485,3.485,3.474,3.474,3.474,3.474,3.474,3.474,3.474,3.474,3.474,3.474,3.474,3.474,3.485,3.485,3.485,3.485,3.485,3.485,3.485,3.496,3.496,3.496,3.496,3.507,3.507,3.507,3.507,3.507,3.496,3.496,3.485,3.485,3.474,3.474,3.463,3.452,3.452,3.442,3.431,3.431,3.41,3.399,3.379,3.368,3.348,3.338,3.318,3.298,3.288,3.279,3.259,3.25,3.24,3.222,3.212,3.194,3.175,3.157,3.139,3.122,3.104,3.087,3.078,3.061,3.053,3.045,3.036,3.036,3.028,3.02,3.011,3.011,3.003,3.003,2.995,2.979,2.971,2.963,2.955,2.947,2.94,2.932,2.916,2.909,2.901,2.894,2.886,2.878,2.871,2.856,2.849,2.842,2.842,2.834,2.827,2.82,2.806,2.799,2.791,2.784,2.777,2.771,2.764,2.75,2.743,2.736,2.73,2.723,2.71,2.696,2.683,2.677,2.664,2.658,2.645,2.632,2.626,2.62,2.614,2.608,2.601,2.595,2.589,2.583,2.577,2.571,2.565,2.559,2.553,2.548,2.542,2.53,2.524,2.513,2.507,2.502,2.496,2.485,2.479,2.474,2.468,2.463,2.463,2.452,2.446,2.441,2.436,2.43,2.425,2.42,2.409,2.409,2.404,2.399,2.399,2.394,2.388,2.388,2.383
