3.769,3.782,3.808,3.835,3.861,3.916,3.958,4.015,4.059,4.12,4.182,4.246,4.312,4.363,4.433,4.469,4.505,4.542,4.561,4.598,4.618,4.637,4.656,4.656,4.676,4.696,4.716,4.736,4.736,4.736,4.756,4.756,4.756,4.756,4.756,4.756,4.756,4.756,4.756,4.756,4.756,4.756,4.736,4.736,4.716,4.716,4.716,4.696,4.696,4.676,4.656,4.618,4.598,4.561,4.523,4.487,4.433,4.398,4.346,4.295,4.262,4.23,4.182,4.166,4.135,4.104,4.089,4.074,4.059,4.045,4.03,4.015,4.001,4.001,4.001,4.001,4.015,4.015,4.045,4.074,4.104,4.151,4.182,4.23,4.262,4.295,4.346,4.363,4.398,4.398,4.415,4.415,4.398,4.398,4.38,4.38,4.363,4.363,4.363,4.363,4.363,4.38,4.398,4.415,4.433,4.451,4.469,4.487,4.505,4.542,4.561,4.561,4.561,4.542,4.542,4.523,4.505,4.487,4.451,4.415,4.363,4.346,4.329,4.312,4.295,4.295,4.295,4.329,4.363,4.398,4.451,4.487,4.523,4.542,4.579,4.561,4.561,4.542,4.523,4.505,4.487,4.451,4.433,4.398,4.38,4.346,4.329,4.312,4.295,4.279,4.262,4.246,4.23,4.23,4.214,4.214,4.214,4.198,4.198,4.182,4.182,4.166,4.166,4.166,4.151,4.151,4.151,4.151,4.151,4.166,4.182,4.198,4.23,4.262,4.329,4.38,4.433,4.487,4.561,4.598,4.656,4.696,4.716,4.736,4.756,4.756,4.756,4.756,4.756,4.736,4.716,4.716,4.696,4.676,4.656,4.656,4.618,4.618,4.618,4.618,4.618,4.618,4.598,4.598,4.598,4.598,4.598,4.579,4.561,4.542,4.523,4.505,4.487,4.469,4.433,4.415,4.398,4.38,4.346,4.346,4.329,4.312,4.295,4.295,4.295,4.295,4.295,4.295,4.312,4.329,4.346,4.363,4.363,4.38,4.398,4.398,4.398,4.398,4.38,4.38,4.363,4.363,4.346,4.346,4.346,4.346,4.346,4.329,4.329,4.329,4.329,4.329,4.329,4.329,4.329,4.329,4.329,4.329,4.329,4.329,4.312,4.312,4.312,4.312,4.295,4.279,4.279,4.279,4.279,4.262,4.262,4.246,4.246,4.246,4.262,4.262,4.279,4.295,4.312,4.329,4.346,4.363,4.363,4.363,4.38,4.38,4.38,4.363,4.363,4.363,4.363,4.363,4.346,4.346,4.346,4.329,4.329,4.329,4.329,4.329,4.329,4.329,4.329,4.329,4.329,4.329,4.329,4.329,4.312,4.312,4.312,4.329,4.329,4.329,4.329,4.329,4.329,4.329,4.329,4.329,4.312,4.312,4.312,4.295,4.295,4.295,4.295,4.279,4.279,4.279,4.279,4.262,4.262,4.246,4.246,4.23,4.214,4.198,4.198,4.182,4.166,4.151,4.135,4.12,4.104,4.089,4.074,4.059,4.045,4.03,4.015,4.001,3.986,3.972,3.972,3.958,3.958,3.944,3.944,3.93,3.916,3.916,3.902,3.888,3.888,3.875,3.861,3.861,3.848,3.835,3.835,3.821,3.821,3.808,3.808,3.795,3.782,3.769,3.757,3.744,3.744,3.731,3.731,3.719,3.706,3.694,3.694,3.682,3.67,3.657,3.645,3.633,3.622,3.598,3.586,3.563,3.541,3.518,3.496,3.474,3.452,3.431,3.41,3.389,3.368,3.358,3.348,3.338,3.328,3.318,3.318,3.308,3.298,3.288,3.288,3.279,3.269,3.259,3.25,3.231,3.222,3.212,3.203,3.185,3.175,3.157,3.148,3.131,3.113,3.096,3.087,3.07,3.061,3.045,3.036,3.02,3.011,2.995,2.987,2.979,2.971,2.963,2.955,2.947,2.94,2.932,2.924,2.916,2.909,2.901,2.886,2.878,2.864,2.849,2.842,2.827,2.813,2.806,2.791,2.784,2.777,2.771,2.764,2.75,2.743,2.736,2.723,2.716,2.703,2.696,2.69,2.683,2.67,2.664,2.658,2.651,2.645,2.639,2.632,2.626,2.614,2.608,2.601,2.595,2.589,2.583,2.577,2.577,2.571,2.565,2.559,2.553,2.548,2.542,2.542,2.536,2.53,2.519,2.513,2.507,2.502,2.496,2.485,2.474,2.468,2.463,2.457,2.446,2.441,2.43,2.425,2.414,2.409,2.404,2.394,2.388,2.383,2.378,2.368,2.363,2.358,2.353,2.343,2.338,2.333,2.328,2.328,2.323
3.757,3.769,3.795,3.821,3.861,3.902,3.958,4.001,4.074,4.12,4.182,4.262,4.329,4.38,4.433,4.487,4.505,4.542,4.579,4.598,4.618,4.637,4.656,4.656,4.676,4.696,4.716,4.736,4.736,4.736,4.736,4.756,4.756,4.756,4.756,4.756,4.756,4.756,4.756,4.756,4.756,4.736,4.736,4.716,4.716,4.716,4.696,4.696,4.676,4.656,4.637,4.598,4.579,4.542,4.487,4.451,4.398,4.346,4.312,4.262,4.23,4.198,4.166,4.135,4.104,4.089,4.074,4.045,4.03,4.015,4.001,3.986,3.972,3.972,3.972,3.972,3.972,4.001,4.015,4.045,4.074,4.12,4.166,4.198,4.246,4.279,4.312,4.329,4.363,4.363,4.38,4.38,4.38,4.38,4.363,4.363,4.346,4.346,4.346,4.346,4.346,4.363,4.38,4.398,4.415,4.433,4.451,4.469,4.487,4.505,4.523,4.523,4.542,4.523,4.505,4.487,4.469,4.451,4.415,4.38,4.346,4.312,4.295,4.279,4.279,4.262,4.295,4.312,4.346,4.398,4.433,4.469,4.505,4.542,4.561,4.561,4.542,4.542,4.505,4.487,4.469,4.433,4.415,4.38,4.363,4.329,4.312,4.295,4.279,4.262,4.246,4.23,4.23,4.214,4.198,4.198,4.198,4.182,4.182,4.166,4.166,4.151,4.151,4.135,4.135,4.12,4.12,4.12,4.12,4.135,4.151,4.166,4.198,4.246,4.295,4.363,4.415,4.469,4.542,4.598,4.637,4.696,4.716,4.736,4.756,4.756,4.756,4.756,4.756,4.736,4.736,4.716,4.696,4.676,4.656,4.637,4.618,4.618,4.598,4.598,4.598,4.579,4.579,4.579,4.561,4.561,4.542,4.523,4.523,4.505,4.487,4.469,4.451,4.433,4.398,4.38,4.38,4.346,4.346,4.329,4.312,4.312,4.279,4.279,4.279,4.279,4.279,4.279,4.279,4.295,4.312,4.329,4.346,4.346,4.363,4.38,4.38,4.363,4.363,4.363,4.363,4.363,4.346,4.346,4.346,4.329,4.329,4.329,4.329,4.329,4.329,4.312,4.312,4.312,4.312,4.312,4.312,4.312,4.312,4.312,4.312,4.312,4.312,4.312,4.295,4.279,4.279,4.279,4.279,4.262,4.262,4.246,4.246,4.246,4.246,4.246,4.262,4.279,4.295,4.312,4.312,4.329,4.346,4.346,4.363,4.363,4.363,4.346,4.346,4.346,4.346,4.346,4.346,4.346,4.346,4.329,4.329,4.329,4.329,4.329,4.329,4.329,4.329,4.329,4.329,4.329,4.329,4.329,4.329,4.312,4.312,4.312,4.312,4.312,4.312,4.312,4.312,4.312,4.312,4.312,4.295,4.295,4.295,4.295,4.295,4.295,4.295,4.279,4.279,4.279,4.262,4.262,4.246,4.246,4.23,4.214,4.214,4.198,4.182,4.166,4.151,4.135,4.12,4.104,4.089,4.089,4.059,4.045,4.03,4.015,4.001,3.986,3.986,3.972,3.958,3.944,3.944,3.93,3.916,3.916,3.902,3.902,3.888,3.888,3.875,3.861,3.861,3.848,3.848,3.835,3.835,3.821,3.821,3.808,3.808,3.795,3.782,3.782,3.769,3.757,3.744,3.731,3.731,3.719,3.719,3.706,3.694,3.682,3.67,3.657,3.645,3.633,3.622,3.61,3.586,3.575,3.541,3.518,3.496,3.474,3.452,3.431,3.41,3.389,3.379,3.358,3.348,3.338,3.328,3.328,3.318,3.308,3.298,3.298,3.288,3.279,3.269,3.259,3.25,3.24,3.231,3.212,3.203,3.194,3.175,3.157,3.148,3.131,3.113,3.096,3.078,3.07,3.061,3.045,3.036,3.02,3.011,2.995,2.987,2.979,2.971,2.963,2.955,2.947,2.94,2.932,2.924,2.916,2.909,2.894,2.878,2.871,2.856,2.842,2.834,2.82,2.813,2.799,2.791,2.784,2.777,2.771,2.757,2.75,2.743,2.73,2.723,2.71,2.703,2.69,2.683,2.677,2.67,2.664,2.651,2.645,2.639,2.632,2.626,2.62,2.614,2.608,2.601,2.595,2.589,2.583,2.577,2.571,2.571,2.565,2.559,2.559,2.553,2.548,2.542,2.536,2.53,2.524,2.519,2.513,2.507,2.496,2.49,2.479,2.474,2.468,2.457,2.452,2.441,2.436,2.425,2.42,2.414,2.409,2.399,2.388,2.383,2.378,2.373,2.368,2.363,2.353,2.348,2.343,2.338,2.333,2.328,2.323
3.744,3.757,3.782,3.808,3.848,3.888,3.944,4.001,4.059,4.12,4.182,4.262,4.329,4.38,4.433,4.487,4.523,4.542,4.579,4.598,4.618,4.637,4.656,4.656,4.676,4.696,4.716,4.716,4.736,4.736,4.736,4.736,4.756,4.756,4.756,4.756,4.756,4.736,4.736,4.736,4.736,4.736,4.716,4.716,4.716,4.696,4.696,4.676,4.656,4.637,4.598,4.579,4.542,4.505,4.469,4.415,4.363,4.312,4.279,4.246,4.198,4.166,4.135,4.12,4.089,4.074,4.059,4.03,4.015,4.001,3.972,3.958,3.958,3.944,3.944,3.944,3.958,3.972,3.986,4.015,4.059,4.089,4.135,4.166,4.214,4.246,4.279,4.295,4.329,4.346,4.346,4.346,4.363,4.363,4.346,4.329,4.329,4.329,4.329,4.329,4.329,4.346,4.363,4.38,4.398,4.415,4.433,4.451,4.469,4.487,4.487,4.505,4.505,4.487,4.469,4.451,4.433,4.415,4.38,4.346,4.312,4.295,4.279,4.262,4.246,4.246,4.262,4.295,4.329,4.38,4.415,4.451,4.487,4.523,4.542,4.542,4.542,4.523,4.505,4.469,4.433,4.415,4.38,4.363,4.346,4.312,4.279,4.262,4.262,4.246,4.23,4.214,4.214,4.198,4.182,4.182,4.182,4.166,4.166,4.151,4.135,4.135,4.12,4.12,4.104,4.104,4.089,4.089,4.104,4.104,4.12,4.151,4.166,4.214,4.279,4.329,4.398,4.451,4.523,4.579,4.637,4.676,4.716,4.736,4.756,4.756,4.756,4.756,4.756,4.736,4.736,4.716,4.696,4.676,4.656,4.637,4.618,4.598,4.598,4.579,4.561,4.561,4.542,4.523,4.523,4.523,4.505,4.487,4.469,4.451,4.433,4.415,4.415,4.398,4.363,4.363,4.346,4.346,4.312,4.312,4.312,4.295,4.295,4.279,4.279,4.262,4.262,4.262,4.262,4.279,4.279,4.295,4.312,4.312,4.329,4.346,4.346,4.346,4.346,4.363,4.346,4.346,4.346,4.329,4.329,4.329,4.329,4.329,4.329,4.312,4.312,4.312,4.312,4.312,4.312,4.312,4.312,4.312,4.312,4.312,4.312,4.312,4.312,4.312,4.295,4.279,4.279,4.279,4.279,4.262,4.262,4.246,4.246,4.246,4.246,4.246,4.246,4.246,4.262,4.279,4.279,4.295,4.312,4.312,4.329,4.346,4.329,4.346,4.329,4.329,4.346,4.329,4.329,4.329,4.329,4.346,4.329,4.329,4.329,4.346,4.346,4.346,4.329,4.329,4.329,4.329,4.329,4.329,4.329,4.312,4.312,4.295,4.295,4.295,4.295,4.295,4.295,4.295,4.295,4.295,4.295,4.295,4.295,4.295,4.295,4.295,4.279,4.279,4.279,4.279,4.262,4.262,4.246,4.246,4.23,4.214,4.198,4.182,4.182,4.166,4.151,4.135,4.12,4.104,4.104,4.089,4.074,4.045,4.03,4.015,4.001,3.986,3.972,3.958,3.944,3.93,3.93,3.916,3.902,3.902,3.888,3.888,3.875,3.875,3.875,3.861,3.861,3.861,3.848,3.848,3.835,3.835,3.821,3.821,3.808,3.795,3.795,3.782,3.769,3.757,3.744,3.744,3.731,3.719,3.719,3.706,3.694,3.682,3.67,3.67,3.657,3.633,3.622,3.61,3.586,3.575,3.552,3.529,3.496,3.474,3.452,3.431,3.41,3.399,3.379,3.368,3.358,3.348,3.338,3.328,3.318,3.308,3.298,3.298,3.288,3.279,3.269,3.259,3.25,3.24,3.231,3.222,3.203,3.194,3.175,3.157,3.148,3.131,3.113,3.096,3.078,3.07,3.053,3.045,3.036,3.02,3.011,3.003,2.995,2.987,2.979,2.963,2.955,2.947,2.94,2.932,2.924,2.909,2.901,2.886,2.878,2.864,2.849,2.842,2.827,2.82,2.806,2.799,2.791,2.784,2.771,2.764,2.757,2.743,2.736,2.73,2.716,2.71,2.696,2.69,2.683,2.67,2.664,2.658,2.651,2.645,2.639,2.632,2.626,2.62,2.614,2.608,2.601,2.595,2.589,2.583,2.577,2.571,2.571,2.565,2.559,2.559,2.553,2.548,2.548,2.542,2.536,2.53,2.519,2.513,2.507,2.502,2.496,2.485,2.479,2.474,2.463,2.457,2.452,2.441,2.43,2.425,2.42,2.409,2.404,2.394,2.383,2.378,2.373,2.368,2.363,2.358,2.348,2.343,2.338,2.333,2.328,2.323
3.731,3.757,3.782,3.808,3.848,3.888,3.944,4.001,4.059,4.12,4.182,4.262,4.329,4.38,4.433,4.469,4.523,4.542,4.579,4.598,4.618,4.637,4.637,4.656,4.676,4.676,4.696,4.716,4.716,4.716,4.736,4.736,4.736,4.736,4.736,4.716,4.716,4.716,4.716,4.716,4.716,4.716,4.696,4.696,4.696,4.676,4.676,4.656,4.637,4.618,4.579,4.561,4.523,4.469,4.433,4.398,4.346,4.295,4.246,4.214,4.182,4.151,4.12,4.104,4.074,4.059,4.045,4.015,3.986,3.972,3.958,3.944,3.93,3.93,3.916,3.93,3.93,3.944,3.972,4.001,4.03,4.074,4.104,4.151,4.182,4.214,4.246,4.279,4.295,4.312,4.329,4.329,4.346,4.329,4.329,4.329,4.329,4.329,4.312,4.312,4.329,4.329,4.346,4.363,4.38,4.38,4.398,4.415,4.433,4.451,4.469,4.469,4.469,4.451,4.433,4.415,4.398,4.363,4.346,4.312,4.279,4.262,4.246,4.246,4.23,4.23,4.246,4.279,4.312,4.363,4.398,4.451,4.469,4.505,4.523,4.523,4.523,4.505,4.469,4.451,4.415,4.398,4.363,4.329,4.312,4.295,4.262,4.246,4.23,4.23,4.214,4.198,4.198,4.182,4.166,4.166,4.166,4.151,4.135,4.135,4.12,4.104,4.089,4.089,4.074,4.059,4.059,4.059,4.059,4.074,4.089,4.12,4.135,4.182,4.246,4.295,4.363,4.433,4.487,4.561,4.598,4.676,4.716,4.736,4.736,4.756,4.756,4.756,4.756,4.736,4.736,4.716,4.696,4.676,4.656,4.637,4.618,4.598,4.579,4.561,4.542,4.523,4.523,4.487,4.487,4.469,4.469,4.433,4.415,4.415,4.398,4.38,4.363,4.363,4.346,4.346,4.329,4.329,4.312,4.312,4.295,4.295,4.279,4.279,4.262,4.262,4.246,4.246,4.246,4.246,4.262,4.262,4.279,4.295,4.295,4.329,4.329,4.329,4.346,4.346,4.346,4.346,4.329,4.329,4.329,4.329,4.329,4.329,4.329,4.312,4.312,4.312,4.312,4.312,4.312,4.312,4.312,4.312,4.312,4.312,4.312,4.312,4.312,4.295,4.295,4.295,4.279,4.279,4.279,4.262,4.262,4.246,4.246,4.23,4.23,4.214,4.23,4.246,4.246,4.246,4.262,4.279,4.279,4.295,4.312,4.312,4.312,4.312,4.329,4.329,4.329,4.329,4.329,4.329,4.329,4.346,4.329,4.346,4.346,4.346,4.346,4.346,4.346,4.346,4.329,4.329,4.329,4.329,4.312,4.312,4.295,4.295,4.295,4.295,4.279,4.279,4.279,4.279,4.279,4.279,4.279,4.279,4.279,4.279,4.279,4.279,4.279,4.279,4.279,4.279,4.262,4.262,4.246,4.23,4.214,4.214,4.198,4.182,4.166,4.151,4.135,4.12,4.12,4.104,4.104,4.089,4.074,4.059,4.045,4.015,4.001,3.986,3.972,3.958,3.944,3.93,3.916,3.902,3.902,3.888,3.888,3.875,3.875,3.875,3.861,3.861,3.861,3.848,3.848,3.848,3.848,3.835,3.821,3.821,3.808,3.808,3.795,3.782,3.769,3.757,3.757,3.744,3.731,3.731,3.719,3.706,3.694,3.682,3.682,3.67,3.657,3.633,3.622,3.61,3.586,3.575,3.552,3.529,3.507,3.485,3.463,3.431,3.41,3.399,3.379,3.368,3.358,3.348,3.338,3.328,3.318,3.308,3.308,3.298,3.288,3.288,3.279,3.269,3.259,3.24,3.24,3.222,3.212,3.194,3.175,3.157,3.148,3.131,3.113,3.096,3.078,3.07,3.053,3.045,3.036,3.02,3.011,3.003,2.995,2.987,2.979,2.963,2.955,2.947,2.932,2.924,2.916,2.909,2.894,2.878,2.864,2.856,2.842,2.834,2.82,2.813,2.799,2.791,2.784,2.777,2.771,2.764,2.75,2.743,2.736,2.723,2.716,2.703,2.696,2.69,2.677,2.67,2.664,2.658,2.651,2.645,2.639,2.626,2.62,2.614,2.608,2.601,2.595,2.595,2.589,2.583,2.577,2.571,2.571,2.565,2.565,2.559,2.553,2.553,2.548,2.542,2.536,2.53,2.524,2.519,2.513,2.507,2.496,2.49,2.485,2.479,2.468,2.463,2.452,2.446,2.436,2.43,2.42,2.414,2.404,2.399,2.388,2.383,2.378,2.373,2.363,2.358,2.353,2.348,2.338,2.338,2.333,2.323
3.731,3.757,3.769,3.808,3.848,3.888,3.944,3.986,4.059,4.12,4.166,4.246,4.312,4.363,4.415,4.469,4.505,4.542,4.561,4.579,4.598,4.618,4.637,4.637,4.656,4.676,4.676,4.696,4.696,4.696,4.716,4.716,4.716,4.716,4.716,4.696,4.696,4.696,4.696,4.696,4.696,4.696,4.676,4.676,4.676,4.676,4.656,4.637,4.618,4.598,4.561,4.523,4.487,4.451,4.398,4.363,4.312,4.279,4.23,4.198,4.166,4.135,4.12,4.089,4.074,4.045,4.015,4.001,3.972,3.958,3.944,3.93,3.916,3.902,3.902,3.902,3.916,3.93,3.958,3.986,4.015,4.059,4.089,4.135,4.166,4.198,4.23,4.262,4.279,4.295,4.312,4.312,4.329,4.329,4.312,4.312,4.312,4.312,4.312,4.312,4.312,4.329,4.329,4.346,4.363,4.38,4.398,4.398,4.415,4.415,4.433,4.433,4.415,4.415,4.38,4.363,4.346,4.329,4.295,4.279,4.246,4.23,4.23,4.214,4.214,4.214,4.23,4.262,4.295,4.329,4.38,4.415,4.451,4.487,4.505,4.505,4.487,4.469,4.451,4.415,4.398,4.363,4.329,4.312,4.295,4.262,4.246,4.23,4.214,4.198,4.182,4.182,4.166,4.166,4.151,4.151,4.135,4.12,4.12,4.104,4.089,4.074,4.059,4.059,4.045,4.045,4.03,4.03,4.03,4.045,4.059,4.074,4.104,4.135,4.198,4.246,4.312,4.38,4.451,4.523,4.579,4.637,4.696,4.716,4.736,4.736,4.756,4.756,4.736,4.736,4.716,4.696,4.696,4.676,4.656,4.618,4.598,4.579,4.561,4.542,4.523,4.505,4.487,4.469,4.433,4.433,4.415,4.398,4.38,4.38,4.363,4.346,4.346,4.346,4.329,4.329,4.329,4.312,4.312,4.312,4.295,4.295,4.279,4.262,4.262,4.262,4.246,4.23,4.23,4.23,4.23,4.246,4.246,4.279,4.279,4.295,4.312,4.329,4.329,4.346,4.346,4.329,4.329,4.329,4.329,4.329,4.329,4.329,4.329,4.312,4.312,4.312,4.312,4.312,4.312,4.312,4.312,4.312,4.312,4.312,4.312,4.312,4.295,4.295,4.295,4.295,4.279,4.279,4.279,4.262,4.246,4.246,4.23,4.23,4.214,4.198,4.198,4.214,4.214,4.23,4.23,4.246,4.246,4.279,4.279,4.295,4.295,4.295,4.312,4.312,4.312,4.312,4.329,4.329,4.329,4.329,4.329,4.329,4.329,4.329,4.346,4.329,4.329,4.329,4.329,4.329,4.329,4.312,4.295,4.295,4.295,4.279,4.279,4.279,4.279,4.279,4.279,4.279,4.279,4.279,4.279,4.279,4.279,4.279,4.279,4.279,4.279,4.279,4.279,4.279,4.262,4.246,4.246,4.23,4.214,4.198,4.182,4.166,4.166,4.151,4.135,4.12,4.12,4.104,4.089,4.089,4.074,4.059,4.045,4.03,4.001,3.986,3.972,3.958,3.93,3.916,3.916,3.902,3.888,3.888,3.875,3.875,3.875,3.861,3.861,3.861,3.861,3.848,3.848,3.848,3.848,3.848,3.835,3.835,3.821,3.808,3.795,3.795,3.782,3.769,3.757,3.744,3.744,3.731,3.719,3.706,3.694,3.682,3.682,3.67,3.657,3.645,3.622,3.61,3.598,3.575,3.552,3.529,3.507,3.474,3.452,3.431,3.41,3.399,3.379,3.368,3.358,3.348,3.338,3.328,3.318,3.308,3.308,3.298,3.298,3.288,3.279,3.269,3.259,3.25,3.24,3.231,3.212,3.194,3.185,3.166,3.148,3.131,3.113,3.096,3.078,3.07,3.061,3.045,3.036,3.02,3.011,3.003,2.995,2.987,2.979,2.971,2.955,2.947,2.932,2.924,2.909,2.901,2.886,2.871,2.864,2.849,2.842,2.827,2.813,2.806,2.799,2.791,2.784,2.777,2.771,2.764,2.75,2.743,2.736,2.723,2.716,2.703,2.696,2.69,2.677,2.67,2.664,2.658,2.651,2.645,2.632,2.626,2.62,2.614,2.608,2.601,2.595,2.595,2.589,2.583,2.577,2.571,2.571,2.571,2.565,2.559,2.559,2.553,2.548,2.542,2.536,2.53,2.524,2.519,2.513,2.507,2.502,2.49,2.485,2.479,2.474,2.463,2.457,2.446,2.441,2.43,2.425,2.414,2.404,2.399,2.388,2.383,2.378,2.373,2.368,2.363,2.353,2.348,2.343,2.338,2.333,2.328
3.731,3.744,3.782,3.808,3.848,3.888,3.93,4.001,4.059,4.104,4.166,4.23,4.295,4.346,4.398,4.451,4.487,4.523,4.542,4.561,4.579,4.598,4.618,4.618,4.637,4.656,4.656,4.676,4.676,4.676,4.696,4.696,4.696,4.696,4.696,4.696,4.696,4.676,4.676,4.676,4.676,4.676,4.656,4.656,4.656,4.656,4.637,4.618,4.598,4.579,4.542,4.505,4.469,4.433,4.38,4.329,4.295,4.262,4.214,4.182,4.151,4.135,4.104,4.074,4.059,4.03,4.015,3.986,3.972,3.944,3.93,3.916,3.902,3.888,3.888,3.888,3.902,3.93,3.944,3.972,4.015,4.045,4.074,4.12,4.151,4.182,4.198,4.246,4.262,4.279,4.295,4.295,4.312,4.312,4.312,4.312,4.312,4.295,4.295,4.295,4.312,4.312,4.329,4.329,4.346,4.346,4.363,4.38,4.38,4.398,4.398,4.38,4.38,4.363,4.346,4.329,4.312,4.295,4.262,4.23,4.214,4.198,4.198,4.198,4.198,4.198,4.214,4.246,4.279,4.312,4.363,4.398,4.433,4.451,4.469,4.469,4.469,4.451,4.415,4.398,4.363,4.346,4.312,4.295,4.262,4.246,4.23,4.214,4.198,4.182,4.166,4.151,4.151,4.135,4.135,4.12,4.12,4.104,4.089,4.089,4.074,4.059,4.045,4.03,4.015,4.015,4.001,4.001,4.015,4.015,4.03,4.045,4.074,4.104,4.166,4.214,4.279,4.346,4.415,4.469,4.542,4.598,4.656,4.676,4.716,4.736,4.736,4.736,4.736,4.716,4.716,4.696,4.676,4.656,4.637,4.618,4.579,4.561,4.542,4.523,4.487,4.469,4.451,4.433,4.415,4.398,4.398,4.363,4.346,4.346,4.346,4.329,4.329,4.329,4.312,4.312,4.312,4.295,4.295,4.295,4.295,4.295,4.279,4.262,4.262,4.246,4.246,4.214,4.214,4.214,4.214,4.23,4.23,4.246,4.262,4.279,4.312,4.312,4.329,4.329,4.329,4.329,4.329,4.329,4.329,4.329,4.329,4.329,4.312,4.312,4.312,4.312,4.312,4.312,4.312,4.312,4.312,4.312,4.312,4.312,4.295,4.295,4.295,4.295,4.295,4.295,4.279,4.279,4.279,4.262,4.246,4.246,4.23,4.214,4.198,4.198,4.198,4.198,4.198,4.198,4.198,4.214,4.23,4.246,4.262,4.262,4.279,4.279,4.279,4.295,4.295,4.295,4.312,4.312,4.312,4.329,4.329,4.329,4.329,4.329,4.329,4.312,4.312,4.312,4.312,4.312,4.295,4.295,4.279,4.279,4.279,4.262,4.262,4.262,4.262,4.262,4.262,4.262,4.262,4.262,4.279,4.279,4.279,4.279,4.279,4.279,4.279,4.279,4.279,4.262,4.262,4.246,4.246,4.23,4.214,4.198,4.182,4.166,4.151,4.135,4.12,4.12,4.104,4.104,4.089,4.089,4.074,4.059,4.045,4.03,4.015,3.986,3.972,3.958,3.93,3.916,3.902,3.888,3.888,3.875,3.875,3.875,3.861,3.861,3.861,3.861,3.861,3.861,3.848,3.848,3.848,3.848,3.848,3.835,3.835,3.821,3.808,3.795,3.782,3.769,3.757,3.757,3.744,3.731,3.731,3.706,3.694,3.694,3.682,3.67,3.657,3.645,3.622,3.61,3.586,3.575,3.552,3.529,3.496,3.474,3.452,3.431,3.41,3.389,3.379,3.368,3.358,3.348,3.338,3.328,3.318,3.318,3.308,3.308,3.298,3.288,3.279,3.269,3.259,3.25,3.24,3.231,3.212,3.203,3.185,3.166,3.148,3.131,3.113,3.096,3.087,3.07,3.061,3.053,3.036,3.028,3.02,3.011,3.003,2.987,2.979,2.971,2.955,2.947,2.932,2.924,2.909,2.894,2.886,2.871,2.856,2.842,2.834,2.82,2.813,2.806,2.799,2.791,2.784,2.777,2.771,2.764,2.75,2.743,2.736,2.723,2.716,2.703,2.696,2.69,2.683,2.677,2.664,2.658,2.651,2.645,2.632,2.626,2.62,2.614,2.608,2.601,2.595,2.595,2.589,2.583,2.577,2.571,2.571,2.571,2.565,2.559,2.559,2.553,2.548,2.542,2.536,2.53,2.524,2.519,2.513,2.507,2.502,2.49,2.485,2.479,2.474,2.468,2.457,2.446,2.441,2.43,2.425,2.42,2.409,2.404,2.394,2.383,2.383,2.378,2.368,2.363,2.358,2.348,2.343,2.338,2.333,2.323
3.731,3.757,3.769,3.821,3.848,3.888,3.944,4.001,4.045,4.104,4.151,4.214,4.279,4.346,4.38,4.433,4.469,4.505,4.523,4.542,4.561,4.579,4.579,4.598,4.618,4.637,4.637,4.656,4.656,4.656,4.656,4.676,4.676,4.676,4.676,4.676,4.676,4.676,4.676,4.656,4.656,4.656,4.637,4.637,4.637,4.637,4.618,4.598,4.579,4.561,4.523,4.487,4.451,4.398,4.363,4.312,4.262,4.23,4.198,4.166,4.135,4.12,4.089,4.074,4.045,4.03,4.001,3.986,3.958,3.944,3.916,3.902,3.888,3.875,3.875,3.888,3.902,3.916,3.944,3.972,4.001,4.045,4.074,4.12,4.151,4.182,4.214,4.23,4.262,4.279,4.295,4.295,4.312,4.312,4.312,4.312,4.312,4.295,4.295,4.295,4.295,4.295,4.312,4.312,4.329,4.329,4.346,4.346,4.363,4.363,4.363,4.363,4.346,4.329,4.312,4.295,4.279,4.246,4.23,4.214,4.198,4.182,4.182,4.182,4.182,4.182,4.198,4.23,4.262,4.295,4.329,4.363,4.398,4.433,4.433,4.451,4.433,4.415,4.398,4.363,4.346,4.312,4.295,4.262,4.23,4.214,4.198,4.182,4.166,4.151,4.151,4.135,4.135,4.12,4.104,4.104,4.089,4.089,4.074,4.059,4.045,4.03,4.015,4.001,4.001,3.986,3.986,3.986,3.986,3.986,4.001,4.03,4.045,4.074,4.135,4.182,4.23,4.295,4.363,4.433,4.505,4.561,4.618,4.637,4.676,4.696,4.716,4.716,4.696,4.696,4.696,4.676,4.656,4.637,4.618,4.598,4.561,4.542,4.523,4.505,4.469,4.451,4.433,4.415,4.398,4.38,4.363,4.346,4.329,4.329,4.312,4.312,4.312,4.295,4.295,4.295,4.295,4.279,4.279,4.279,4.279,4.279,4.262,4.262,4.262,4.246,4.23,4.198,4.198,4.182,4.198,4.214,4.214,4.23,4.262,4.279,4.295,4.312,4.329,4.329,4.329,4.329,4.329,4.329,4.329,4.329,4.329,4.329,4.312,4.312,4.312,4.312,4.312,4.312,4.312,4.312,4.312,4.312,4.295,4.295,4.295,4.295,4.295,4.295,4.295,4.279,4.279,4.279,4.279,4.262,4.246,4.23,4.23,4.198,4.198,4.182,4.182,4.182,4.182,4.182,4.182,4.182,4.198,4.214,4.23,4.246,4.246,4.262,4.279,4.279,4.279,4.279,4.279,4.295,4.295,4.295,4.295,4.295,4.295,4.295,4.295,4.295,4.279,4.279,4.279,4.279,4.262,4.262,4.262,4.262,4.246,4.246,4.246,4.246,4.246,4.246,4.246,4.246,4.246,4.262,4.262,4.262,4.279,4.279,4.279,4.279,4.279,4.279,4.279,4.262,4.262,4.246,4.23,4.214,4.198,4.182,4.166,4.151,4.135,4.135,4.12,4.104,4.104,4.104,4.089,4.074,4.074,4.059,4.045,4.03,4.015,3.986,3.972,3.958,3.944,3.916,3.902,3.902,3.888,3.875,3.875,3.875,3.861,3.861,3.861,3.861,3.861,3.861,3.861,3.861,3.861,3.848,3.848,3.848,3.835,3.835,3.821,3.808,3.795,3.782,3.769,3.757,3.757,3.744,3.731,3.719,3.706,3.694,3.682,3.67,3.657,3.633,3.622,3.598,3.586,3.575,3.541,3.518,3.496,3.474,3.452,3.431,3.41,3.389,3.379,3.368,3.358,3.348,3.348,3.338,3.328,3.318,3.318,3.308,3.298,3.288,3.279,3.279,3.269,3.259,3.24,3.231,3.212,3.203,3.185,3.166,3.148,3.131,3.113,3.096,3.087,3.07,3.061,3.053,3.036,3.028,3.02,3.011,3.003,2.995,2.979,2.971,2.963,2.947,2.932,2.924,2.909,2.894,2.878,2.864,2.849,2.842,2.827,2.82,2.813,2.806,2.799,2.791,2.784,2.777,2.771,2.764,2.757,2.743,2.736,2.723,2.716,2.71,2.696,2.69,2.683,2.677,2.67,2.658,2.651,2.645,2.639,2.626,2.62,2.614,2.608,2.601,2.601,2.595,2.589,2.583,2.577,2.577,2.571,2.571,2.565,2.565,2.559,2.553,2.548,2.542,2.536,2.53,2.524,2.519,2.513,2.502,2.496,2.49,2.485,2.479,2.474,2.468,2.457,2.452,2.441,2.436,2.425,2.42,2.409,2.404,2.394,2.388,2.383,2.378,2.373,2.363,2.358,2.353,2.343,2.338,2.333,2.323
3.744,3.769,3.795,3.821,3.861,3.916,3.958,4.001,4.045,4.104,4.151,4.214,4.262,4.329,4.363,4.415,4.451,4.487,4.505,4.523,4.542,4.561,4.561,4.579,4.598,4.618,4.618,4.618,4.637,4.637,4.637,4.637,4.656,4.656,4.637,4.637,4.637,4.637,4.637,4.637,4.637,4.618,4.618,4.618,4.618,4.598,4.598,4.579,4.561,4.523,4.505,4.451,4.415,4.38,4.346,4.295,4.246,4.214,4.182,4.151,4.12,4.104,4.074,4.059,4.045,4.03,4.001,3.972,3.958,3.93,3.902,3.888,3.888,3.875,3.875,3.875,3.888,3.916,3.944,3.972,4.015,4.045,4.089,4.12,4.151,4.182,4.214,4.246,4.262,4.279,4.295,4.312,4.312,4.312,4.312,4.312,4.312,4.295,4.295,4.295,4.295,4.295,4.295,4.295,4.295,4.312,4.312,4.312,4.329,4.329,4.312,4.312,4.295,4.279,4.262,4.246,4.23,4.214,4.198,4.182,4.166,4.166,4.151,4.151,4.151,4.166,4.182,4.214,4.246,4.279,4.312,4.346,4.38,4.398,4.415,4.415,4.415,4.398,4.363,4.346,4.312,4.295,4.262,4.23,4.214,4.198,4.182,4.151,4.151,4.135,4.12,4.104,4.104,4.104,4.089,4.089,4.074,4.059,4.045,4.03,4.015,4.015,4.001,3.986,3.972,3.972,3.958,3.958,3.972,3.972,3.986,4.001,4.015,4.045,4.089,4.151,4.198,4.246,4.329,4.38,4.451,4.505,4.561,4.598,4.637,4.656,4.676,4.676,4.676,4.676,4.656,4.656,4.637,4.618,4.598,4.579,4.542,4.523,4.505,4.469,4.451,4.433,4.415,4.38,4.363,4.363,4.346,4.329,4.312,4.312,4.295,4.295,4.295,4.295,4.279,4.279,4.279,4.279,4.279,4.262,4.262,4.262,4.246,4.246,4.246,4.23,4.198,4.182,4.166,4.166,4.182,4.198,4.214,4.214,4.246,4.262,4.295,4.312,4.329,4.329,4.329,4.329,4.329,4.329,4.329,4.329,4.329,4.312,4.312,4.312,4.312,4.312,4.312,4.312,4.295,4.295,4.295,4.295,4.295,4.295,4.295,4.295,4.295,4.295,4.295,4.279,4.279,4.279,4.262,4.262,4.246,4.23,4.214,4.198,4.182,4.182,4.166,4.166,4.151,4.151,4.166,4.166,4.182,4.198,4.214,4.23,4.23,4.246,4.246,4.262,4.279,4.279,4.279,4.279,4.279,4.279,4.279,4.279,4.262,4.262,4.246,4.246,4.246,4.246,4.23,4.23,4.23,4.23,4.214,4.214,4.214,4.214,4.214,4.214,4.214,4.214,4.23,4.23,4.23,4.23,4.246,4.246,4.246,4.262,4.262,4.262,4.262,4.262,4.246,4.246,4.246,4.23,4.214,4.198,4.182,4.166,4.151,4.135,4.12,4.12,4.104,4.104,4.089,4.089,4.074,4.074,4.059,4.045,4.045,4.03,4.015,4.001,3.972,3.958,3.944,3.93,3.902,3.902,3.888,3.875,3.875,3.861,3.861,3.861,3.861,3.861,3.861,3.861,3.861,3.861,3.861,3.848,3.848,3.848,3.848,3.835,3.821,3.821,3.808,3.795,3.782,3.769,3.757,3.744,3.731,3.719,3.706,3.694,3.682,3.67,3.657,3.633,3.622,3.598,3.586,3.563,3.541,3.518,3.496,3.474,3.452,3.431,3.41,3.389,3.379,3.368,3.358,3.358,3.348,3.338,3.328,3.318,3.318,3.308,3.308,3.298,3.288,3.279,3.269,3.259,3.25,3.231,3.212,3.203,3.185,3.166,3.148,3.131,3.113,3.104,3.087,3.078,3.061,3.053,3.045,3.036,3.02,3.011,3.003,2.995,2.987,2.971,2.963,2.947,2.932,2.916,2.901,2.886,2.878,2.856,2.849,2.834,2.827,2.82,2.813,2.806,2.799,2.791,2.784,2.777,2.771,2.764,2.757,2.743,2.736,2.723,2.716,2.703,2.696,2.69,2.683,2.677,2.67,2.658,2.651,2.645,2.639,2.632,2.626,2.614,2.608,2.608,2.601,2.595,2.589,2.583,2.583,2.577,2.577,2.571,2.565,2.565,2.559,2.553,2.548,2.542,2.536,2.53,2.524,2.519,2.507,2.502,2.49,2.485,2.479,2.479,2.474,2.468,2.457,2.452,2.441,2.436,2.425,2.42,2.409,2.404,2.394,2.388,2.383,2.378,2.373,2.363,2.358,2.353,2.348,2.338,2.333,2.323
3.757,3.782,3.808,3.848,3.875,3.93,3.972,4.015,4.059,4.104,4.151,4.214,4.262,4.312,4.363,4.398,4.433,4.469,4.487,4.505,4.523,4.542,4.542,4.561,4.579,4.579,4.598,4.598,4.598,4.618,4.618,4.618,4.618,4.618,4.618,4.618,4.618,4.618,4.618,4.598,4.598,4.598,4.598,4.598,4.579,4.579,4.561,4.561,4.542,4.505,4.469,4.433,4.398,4.346,4.312,4.279,4.246,4.198,4.166,4.151,4.12,4.104,4.074,4.059,4.045,4.015,4.001,3.972,3.944,3.93,3.902,3.888,3.875,3.861,3.875,3.875,3.888,3.916,3.944,3.986,4.015,4.059,4.104,4.135,4.166,4.198,4.23,4.262,4.279,4.295,4.312,4.312,4.329,4.329,4.329,4.312,4.312,4.295,4.295,4.295,4.279,4.279,4.279,4.279,4.279,4.279,4.295,4.279,4.279,4.279,4.279,4.279,4.262,4.246,4.23,4.214,4.182,4.182,4.166,4.151,4.135,4.135,4.135,4.135,4.135,4.151,4.166,4.182,4.214,4.262,4.295,4.312,4.346,4.363,4.38,4.38,4.38,4.363,4.346,4.312,4.279,4.262,4.23,4.214,4.198,4.166,4.151,4.135,4.12,4.104,4.089,4.089,4.074,4.074,4.059,4.059,4.045,4.03,4.015,4.015,4.001,3.986,3.972,3.972,3.958,3.944,3.944,3.944,3.944,3.958,3.972,3.986,4.001,4.03,4.074,4.104,4.166,4.214,4.279,4.329,4.398,4.451,4.505,4.542,4.579,4.598,4.618,4.618,4.637,4.637,4.637,4.618,4.618,4.598,4.579,4.542,4.523,4.505,4.469,4.451,4.433,4.398,4.38,4.363,4.346,4.329,4.329,4.312,4.295,4.279,4.279,4.279,4.279,4.262,4.262,4.246,4.262,4.246,4.246,4.246,4.246,4.23,4.23,4.23,4.214,4.198,4.182,4.166,4.151,4.151,4.151,4.166,4.198,4.214,4.23,4.262,4.295,4.329,4.329,4.329,4.329,4.329,4.329,4.329,4.329,4.329,4.329,4.312,4.312,4.312,4.312,4.312,4.312,4.295,4.295,4.295,4.295,4.295,4.295,4.295,4.295,4.295,4.295,4.295,4.279,4.279,4.279,4.262,4.262,4.246,4.23,4.23,4.214,4.198,4.182,4.166,4.151,4.151,4.135,4.135,4.135,4.151,4.166,4.182,4.182,4.198,4.214,4.23,4.246,4.262,4.262,4.279,4.279,4.279,4.262,4.262,4.262,4.246,4.246,4.23,4.23,4.214,4.198,4.198,4.182,4.182,4.182,4.182,4.182,4.166,4.166,4.166,4.166,4.166,4.166,4.182,4.182,4.198,4.198,4.214,4.214,4.214,4.214,4.214,4.23,4.23,4.23,4.23,4.23,4.23,4.214,4.214,4.198,4.182,4.166,4.151,4.135,4.12,4.104,4.089,4.089,4.089,4.074,4.074,4.074,4.059,4.045,4.045,4.03,4.03,4.015,4.001,3.972,3.958,3.944,3.93,3.902,3.888,3.875,3.875,3.861,3.861,3.861,3.848,3.848,3.848,3.848,3.848,3.848,3.848,3.848,3.848,3.848,3.848,3.848,3.835,3.835,3.821,3.808,3.795,3.782,3.769,3.757,3.744,3.731,3.719,3.706,3.694,3.682,3.657,3.645,3.633,3.61,3.598,3.575,3.552,3.529,3.507,3.496,3.463,3.452,3.431,3.41,3.389,3.379,3.368,3.358,3.358,3.348,3.338,3.328,3.318,3.318,3.308,3.308,3.298,3.288,3.279,3.269,3.259,3.25,3.231,3.212,3.203,3.185,3.166,3.148,3.131,3.113,3.096,3.087,3.078,3.061,3.053,3.045,3.036,3.028,3.02,3.003,2.995,2.987,2.971,2.955,2.947,2.932,2.916,2.901,2.886,2.871,2.856,2.849,2.834,2.827,2.82,2.813,2.806,2.799,2.791,2.784,2.777,2.771,2.764,2.757,2.743,2.736,2.723,2.716,2.71,2.696,2.69,2.683,2.677,2.67,2.664,2.658,2.651,2.639,2.632,2.626,2.62,2.614,2.608,2.608,2.601,2.595,2.589,2.583,2.583,2.577,2.571,2.565,2.565,2.559,2.553,2.548,2.536,2.53,2.524,2.519,2.513,2.502,2.496,2.49,2.485,2.479,2.474,2.474,2.463,2.457,2.446,2.441,2.436,2.425,2.42,2.409,2.404,2.394,2.388,2.383,2.378,2.373,2.363,2.358,2.353,2.348,2.338,2.333,2.328
3.757,3.795,3.821,3.861,3.902,3.944,3.986,4.045,4.074,4.12,4.166,4.214,4.262,4.312,4.346,4.38,4.415,4.451,4.469,4.487,4.505,4.523,4.523,4.542,4.561,4.561,4.561,4.579,4.579,4.598,4.598,4.598,4.579,4.579,4.579,4.579,4.598,4.579,4.579,4.579,4.579,4.561,4.561,4.561,4.561,4.561,4.542,4.523,4.505,4.487,4.451,4.415,4.38,4.329,4.295,4.262,4.23,4.198,4.166,4.135,4.12,4.089,4.074,4.059,4.03,4.015,3.986,3.972,3.944,3.916,3.902,3.875,3.861,3.861,3.861,3.875,3.888,3.916,3.958,3.986,4.045,4.089,4.12,4.151,4.198,4.23,4.262,4.279,4.295,4.312,4.312,4.329,4.329,4.329,4.329,4.329,4.312,4.295,4.295,4.279,4.279,4.262,4.262,4.262,4.262,4.246,4.246,4.246,4.246,4.246,4.246,4.23,4.214,4.214,4.198,4.166,4.151,4.135,4.135,4.12,4.104,4.104,4.104,4.104,4.12,4.12,4.151,4.166,4.198,4.23,4.279,4.295,4.329,4.346,4.346,4.363,4.346,4.329,4.312,4.279,4.262,4.23,4.214,4.198,4.166,4.151,4.135,4.12,4.104,4.089,4.074,4.059,4.059,4.045,4.03,4.03,4.015,4.015,4.001,3.986,3.972,3.972,3.958,3.944,3.944,3.93,3.93,3.93,3.93,3.944,3.944,3.958,3.972,4.001,4.045,4.074,4.12,4.182,4.23,4.279,4.346,4.398,4.451,4.487,4.523,4.542,4.561,4.579,4.579,4.579,4.579,4.579,4.579,4.561,4.523,4.505,4.487,4.451,4.433,4.415,4.398,4.363,4.346,4.329,4.312,4.312,4.295,4.279,4.279,4.262,4.262,4.246,4.246,4.246,4.23,4.23,4.23,4.23,4.23,4.23,4.23,4.214,4.214,4.198,4.182,4.166,4.151,4.135,4.12,4.12,4.12,4.151,4.166,4.198,4.214,4.246,4.279,4.312,4.346,4.346,4.346,4.329,4.329,4.329,4.329,4.329,4.312,4.312,4.312,4.312,4.312,4.295,4.295,4.295,4.295,4.295,4.295,4.295,4.295,4.295,4.295,4.295,4.279,4.279,4.279,4.279,4.279,4.262,4.262,4.246,4.23,4.214,4.198,4.182,4.166,4.151,4.151,4.135,4.135,4.12,4.12,4.135,4.151,4.166,4.182,4.198,4.214,4.23,4.23,4.246,4.262,4.262,4.262,4.262,4.262,4.246,4.246,4.23,4.214,4.198,4.182,4.166,4.151,4.151,4.135,4.135,4.12,4.12,4.12,4.12,4.12,4.12,4.135,4.135,4.135,4.135,4.151,4.151,4.151,4.166,4.182,4.182,4.182,4.182,4.182,4.198,4.198,4.198,4.198,4.198,4.182,4.182,4.166,4.151,4.135,4.12,4.104,4.104,4.089,4.074,4.074,4.059,4.059,4.059,4.059,4.045,4.045,4.03,4.03,4.015,4.001,3.986,3.972,3.958,3.944,3.93,3.902,3.888,3.875,3.861,3.861,3.861,3.848,3.848,3.848,3.848,3.848,3.848,3.848,3.848,3.848,3.848,3.848,3.848,3.835,3.835,3.821,3.821,3.808,3.795,3.782,3.782,3.757,3.744,3.731,3.719,3.706,3.694,3.67,3.657,3.645,3.622,3.61,3.598,3.575,3.552,3.529,3.507,3.485,3.463,3.442,3.431,3.41,3.389,3.379,3.368,3.358,3.358,3.348,3.338,3.328,3.318,3.318,3.308,3.308,3.298,3.288,3.279,3.269,3.259,3.24,3.231,3.212,3.203,3.185,3.166,3.148,3.131,3.113,3.096,3.087,3.078,3.061,3.053,3.045,3.036,3.028,3.011,3.003,2.995,2.987,2.971,2.955,2.94,2.924,2.916,2.901,2.886,2.871,2.856,2.849,2.834,2.827,2.82,2.813,2.806,2.799,2.791,2.784,2.777,2.771,2.764,2.757,2.75,2.736,2.73,2.716,2.71,2.696,2.69,2.683,2.677,2.67,2.664,2.658,2.651,2.645,2.639,2.632,2.626,2.62,2.614,2.608,2.608,2.601,2.595,2.589,2.583,2.577,2.577,2.571,2.565,2.559,2.548,2.542,2.536,2.524,2.519,2.513,2.507,2.496,2.49,2.485,2.479,2.474,2.468,2.463,2.457,2.452,2.446,2.441,2.43,2.425,2.414,2.409,2.399,2.394,2.388,2.383,2.378,2.373,2.363,2.358,2.353,2.348,2.338,2.333,2.323
3.769,3.808,3.835,3.888,3.916,3.972,4.001,4.059,4.089,4.12,4.166,4.214,4.262,4.312,4.346,4.38,4.415,4.433,4.451,4.487,4.487,4.505,4.523,4.523,4.542,4.542,4.542,4.561,4.561,4.561,4.561,4.561,4.561,4.561,4.561,4.561,4.561,4.561,4.561,4.542,4.542,4.542,4.542,4.542,4.542,4.523,4.505,4.505,4.469,4.451,4.415,4.38,4.346,4.295,4.262,4.23,4.198,4.182,4.151,4.135,4.104,4.089,4.074,4.045,4.03,4.015,3.986,3.958,3.93,3.902,3.888,3.875,3.861,3.861,3.861,3.875,3.902,3.93,3.958,4.015,4.059,4.104,4.151,4.182,4.214,4.246,4.279,4.312,4.329,4.329,4.346,4.346,4.346,4.329,4.329,4.312,4.295,4.295,4.279,4.262,4.262,4.246,4.246,4.23,4.23,4.23,4.23,4.214,4.214,4.214,4.198,4.198,4.182,4.166,4.151,4.135,4.12,4.104,4.104,4.089,4.074,4.074,4.074,4.089,4.104,4.104,4.135,4.151,4.182,4.214,4.246,4.279,4.295,4.312,4.329,4.329,4.329,4.295,4.279,4.262,4.23,4.214,4.198,4.182,4.151,4.135,4.12,4.089,4.074,4.074,4.059,4.045,4.03,4.015,4.015,4.001,4.001,3.986,3.972,3.958,3.958,3.944,3.944,3.93,3.93,3.916,3.916,3.916,3.916,3.93,3.93,3.944,3.958,3.986,4.015,4.045,4.089,4.135,4.182,4.23,4.295,4.346,4.398,4.433,4.469,4.487,4.505,4.523,4.523,4.523,4.542,4.523,4.523,4.505,4.487,4.469,4.451,4.415,4.398,4.38,4.363,4.329,4.312,4.295,4.295,4.279,4.279,4.262,4.246,4.246,4.23,4.23,4.23,4.23,4.214,4.214,4.214,4.214,4.214,4.198,4.198,4.182,4.182,4.166,4.151,4.135,4.12,4.104,4.089,4.089,4.104,4.12,4.151,4.166,4.198,4.246,4.279,4.312,4.346,4.346,4.329,4.329,4.329,4.329,4.329,4.312,4.312,4.312,4.312,4.312,4.295,4.295,4.295,4.279,4.279,4.279,4.279,4.279,4.279,4.279,4.279,4.279,4.279,4.279,4.279,4.279,4.262,4.262,4.246,4.246,4.23,4.214,4.198,4.182,4.166,4.151,4.135,4.135,4.12,4.12,4.104,4.12,4.135,4.151,4.166,4.182,4.198,4.214,4.23,4.246,4.262,4.262,4.262,4.262,4.246,4.23,4.23,4.214,4.198,4.166,4.151,4.12,4.104,4.089,4.074,4.074,4.074,4.074,4.074,4.074,4.074,4.074,4.074,4.089,4.089,4.104,4.104,4.12,4.12,4.12,4.135,4.135,4.151,4.151,4.151,4.151,4.151,4.151,4.151,4.151,4.151,4.151,4.135,4.12,4.104,4.104,4.089,4.074,4.059,4.059,4.045,4.045,4.045,4.045,4.03,4.03,4.015,4.015,4.015,4.001,4.001,3.986,3.972,3.958,3.944,3.916,3.902,3.888,3.875,3.861,3.848,3.848,3.835,3.835,3.835,3.835,3.835,3.835,3.835,3.835,3.835,3.835,3.835,3.835,3.821,3.821,3.821,3.808,3.795,3.795,3.782,3.769,3.757,3.744,3.731,3.719,3.706,3.682,3.67,3.657,3.645,3.622,3.61,3.586,3.563,3.552,3.529,3.507,3.485,3.463,3.442,3.431,3.41,3.389,3.379,3.368,3.358,3.358,3.348,3.338,3.328,3.328,3.318,3.308,3.308,3.298,3.288,3.269,3.259,3.25,3.24,3.222,3.212,3.194,3.175,3.166,3.148,3.131,3.113,3.096,3.087,3.078,3.061,3.053,3.045,3.036,3.028,3.011,3.003,2.995,2.987,2.971,2.955,2.94,2.924,2.916,2.901,2.886,2.871,2.856,2.849,2.834,2.827,2.82,2.813,2.806,2.799,2.791,2.784,2.777,2.771,2.764,2.757,2.743,2.736,2.73,2.716,2.71,2.703,2.696,2.69,2.683,2.677,2.67,2.658,2.658,2.651,2.645,2.639,2.632,2.626,2.62,2.614,2.608,2.601,2.595,2.595,2.589,2.583,2.577,2.571,2.565,2.559,2.548,2.542,2.53,2.524,2.519,2.507,2.502,2.496,2.485,2.479,2.474,2.468,2.463,2.463,2.452,2.446,2.441,2.43,2.425,2.42,2.414,2.409,2.399,2.394,2.388,2.383,2.378,2.373,2.363,2.358,2.353,2.348,2.338,2.333,2.323
3.782,3.821,3.861,3.902,3.944,3.986,4.03,4.074,4.104,4.135,4.182,4.214,4.262,4.312,4.346,4.38,4.415,4.433,4.451,4.469,4.487,4.487,4.505,4.523,4.523,4.523,4.523,4.542,4.542,4.542,4.542,4.523,4.523,4.523,4.523,4.523,4.523,4.523,4.523,4.523,4.523,4.505,4.505,4.505,4.505,4.487,4.487,4.451,4.433,4.415,4.38,4.346,4.312,4.279,4.246,4.214,4.182,4.166,4.135,4.12,4.104,4.074,4.059,4.045,4.03,4.001,3.972,3.944,3.916,3.902,3.875,3.861,3.848,3.848,3.861,3.875,3.902,3.93,3.972,4.03,4.074,4.12,4.166,4.214,4.246,4.279,4.295,4.329,4.346,4.346,4.346,4.346,4.346,4.329,4.329,4.312,4.295,4.279,4.262,4.246,4.246,4.23,4.214,4.214,4.198,4.198,4.182,4.182,4.182,4.182,4.166,4.151,4.151,4.135,4.12,4.104,4.089,4.074,4.074,4.059,4.045,4.045,4.059,4.059,4.074,4.089,4.104,4.135,4.166,4.198,4.23,4.262,4.279,4.295,4.295,4.295,4.295,4.279,4.262,4.23,4.214,4.198,4.182,4.166,4.135,4.12,4.104,4.089,4.074,4.059,4.03,4.015,4.001,4.001,3.986,3.986,3.972,3.958,3.944,3.944,3.944,3.93,3.93,3.916,3.916,3.902,3.902,3.902,3.902,3.916,3.93,3.93,3.944,3.972,3.986,4.03,4.059,4.089,4.151,4.182,4.246,4.295,4.346,4.38,4.415,4.433,4.451,4.469,4.487,4.487,4.487,4.487,4.469,4.451,4.451,4.433,4.415,4.38,4.363,4.346,4.329,4.312,4.295,4.279,4.262,4.262,4.246,4.23,4.23,4.214,4.214,4.214,4.214,4.214,4.198,4.198,4.198,4.182,4.182,4.166,4.166,4.151,4.135,4.135,4.12,4.104,4.089,4.059,4.059,4.059,4.059,4.089,4.12,4.151,4.182,4.23,4.262,4.295,4.329,4.329,4.329,4.329,4.329,4.329,4.329,4.312,4.312,4.312,4.312,4.312,4.295,4.295,4.279,4.279,4.279,4.279,4.279,4.279,4.279,4.279,4.279,4.279,4.279,4.279,4.262,4.262,4.262,4.246,4.246,4.23,4.214,4.198,4.182,4.166,4.151,4.135,4.12,4.12,4.104,4.104,4.104,4.104,4.12,4.12,4.151,4.166,4.182,4.198,4.214,4.23,4.246,4.246,4.246,4.246,4.23,4.214,4.198,4.182,4.166,4.135,4.104,4.089,4.059,4.045,4.03,4.03,4.015,4.015,4.015,4.015,4.015,4.03,4.03,4.045,4.045,4.059,4.059,4.074,4.074,4.089,4.089,4.089,4.104,4.104,4.104,4.12,4.12,4.12,4.12,4.104,4.104,4.104,4.104,4.089,4.089,4.074,4.059,4.059,4.045,4.03,4.03,4.03,4.03,4.03,4.015,4.015,4.001,4.001,4.001,3.986,3.986,3.972,3.958,3.944,3.93,3.916,3.902,3.875,3.861,3.848,3.835,3.835,3.821,3.821,3.821,3.821,3.821,3.821,3.821,3.821,3.821,3.821,3.821,3.821,3.808,3.808,3.808,3.795,3.782,3.782,3.769,3.757,3.757,3.744,3.719,3.706,3.694,3.682,3.67,3.645,3.633,3.622,3.61,3.586,3.563,3.541,3.529,3.507,3.485,3.463,3.442,3.42,3.41,3.389,3.379,3.368,3.358,3.358,3.348,3.338,3.328,3.328,3.318,3.308,3.308,3.298,3.279,3.269,3.259,3.25,3.231,3.222,3.203,3.194,3.175,3.157,3.139,3.122,3.113,3.096,3.087,3.07,3.061,3.053,3.036,3.028,3.02,3.011,3.003,2.995,2.979,2.963,2.955,2.94,2.924,2.909,2.901,2.886,2.871,2.856,2.849,2.842,2.827,2.82,2.813,2.806,2.799,2.791,2.784,2.777,2.771,2.764,2.757,2.743,2.736,2.73,2.716,2.71,2.703,2.696,2.69,2.683,2.677,2.67,2.664,2.658,2.651,2.645,2.639,2.632,2.626,2.626,2.62,2.614,2.608,2.601,2.595,2.589,2.583,2.577,2.571,2.565,2.559,2.548,2.536,2.53,2.524,2.513,2.507,2.496,2.485,2.479,2.474,2.468,2.463,2.457,2.452,2.446,2.441,2.436,2.43,2.425,2.414,2.409,2.404,2.394,2.388,2.383,2.378,2.373,2.368,2.363,2.358,2.353,2.343,2.338,2.333,2.323
3.795,3.835,3.875,3.916,3.958,4.001,4.045,4.089,4.12,4.151,4.198,4.23,4.279,4.312,4.346,4.38,4.415,4.415,4.451,4.451,4.469,4.487,4.487,4.505,4.523,4.523,4.523,4.523,4.523,4.505,4.505,4.505,4.505,4.505,4.487,4.487,4.487,4.505,4.505,4.487,4.487,4.487,4.469,4.469,4.469,4.451,4.433,4.415,4.398,4.38,4.346,4.312,4.279,4.246,4.23,4.198,4.166,4.151,4.135,4.104,4.089,4.074,4.045,4.03,4.001,3.986,3.958,3.93,3.916,3.888,3.875,3.848,3.848,3.848,3.861,3.875,3.902,3.944,3.986,4.03,4.089,4.151,4.198,4.23,4.262,4.295,4.329,4.346,4.346,4.363,4.346,4.346,4.346,4.329,4.312,4.295,4.279,4.262,4.23,4.23,4.214,4.198,4.198,4.182,4.166,4.166,4.166,4.151,4.151,4.135,4.135,4.12,4.12,4.104,4.089,4.074,4.059,4.045,4.045,4.03,4.015,4.015,4.03,4.045,4.045,4.059,4.089,4.104,4.151,4.182,4.214,4.246,4.262,4.279,4.279,4.279,4.279,4.262,4.246,4.214,4.198,4.182,4.166,4.151,4.12,4.104,4.089,4.074,4.059,4.03,4.015,4.001,3.986,3.972,3.958,3.958,3.944,3.944,3.93,3.93,3.93,3.916,3.916,3.902,3.902,3.902,3.902,3.902,3.902,3.902,3.916,3.916,3.93,3.958,3.986,4.015,4.045,4.074,4.12,4.166,4.23,4.262,4.312,4.329,4.38,4.398,4.433,4.433,4.451,4.451,4.451,4.451,4.433,4.433,4.415,4.398,4.38,4.346,4.329,4.312,4.295,4.279,4.262,4.246,4.246,4.23,4.23,4.214,4.214,4.214,4.198,4.198,4.198,4.198,4.182,4.182,4.166,4.151,4.151,4.135,4.12,4.12,4.104,4.089,4.089,4.074,4.059,4.03,4.015,4.015,4.03,4.059,4.089,4.12,4.151,4.198,4.246,4.279,4.329,4.329,4.329,4.329,4.329,4.329,4.329,4.312,4.312,4.312,4.312,4.295,4.295,4.295,4.279,4.279,4.279,4.279,4.279,4.279,4.279,4.279,4.279,4.279,4.279,4.262,4.262,4.262,4.262,4.246,4.23,4.23,4.214,4.198,4.182,4.166,4.151,4.135,4.12,4.104,4.089,4.089,4.089,4.089,4.089,4.104,4.12,4.135,4.151,4.166,4.182,4.214,4.23,4.23,4.23,4.214,4.214,4.198,4.182,4.151,4.135,4.104,4.074,4.045,4.03,4.015,4.001,3.986,3.972,3.972,3.972,3.972,3.972,3.986,3.986,4.001,4.001,4.015,4.015,4.03,4.03,4.045,4.045,4.059,4.059,4.059,4.059,4.059,4.074,4.074,4.074,4.074,4.059,4.059,4.059,4.059,4.045,4.045,4.03,4.03,4.015,4.015,4.015,4.001,4.001,4.001,4.001,3.986,3.986,3.972,3.972,3.972,3.958,3.944,3.944,3.93,3.916,3.902,3.888,3.875,3.861,3.848,3.835,3.821,3.821,3.808,3.808,3.808,3.808,3.808,3.808,3.808,3.808,3.808,3.808,3.795,3.795,3.795,3.795,3.782,3.769,3.769,3.757,3.744,3.744,3.731,3.719,3.706,3.694,3.682,3.657,3.645,3.633,3.622,3.598,3.586,3.563,3.541,3.518,3.507,3.485,3.463,3.442,3.42,3.41,3.389,3.379,3.368,3.358,3.358,3.348,3.338,3.338,3.328,3.318,3.308,3.298,3.288,3.279,3.269,3.259,3.24,3.231,3.212,3.203,3.185,3.166,3.157,3.139,3.122,3.104,3.096,3.078,3.07,3.061,3.045,3.036,3.028,3.02,3.003,2.995,2.987,2.979,2.963,2.947,2.94,2.924,2.909,2.901,2.886,2.871,2.856,2.849,2.842,2.834,2.82,2.813,2.806,2.799,2.791,2.784,2.777,2.771,2.757,2.75,2.743,2.736,2.73,2.723,2.716,2.71,2.703,2.696,2.69,2.683,2.677,2.67,2.664,2.658,2.651,2.645,2.639,2.632,2.626,2.62,2.62,2.614,2.608,2.601,2.595,2.589,2.583,2.571,2.565,2.559,2.548,2.536,2.53,2.519,2.513,2.502,2.49,2.485,2.474,2.468,2.463,2.457,2.452,2.446,2.441,2.436,2.43,2.425,2.414,2.409,2.404,2.399,2.394,2.383,2.378,2.373,2.368,2.363,2.358,2.353,2.348,2.343,2.338,2.333,2.323
3.808,3.848,3.888,3.93,3.972,4.015,4.045,4.104,4.135,4.166,4.214,4.246,4.279,4.329,4.346,4.38,4.398,4.415,4.451,4.451,4.469,4.469,4.487,4.487,4.505,4.505,4.505,4.505,4.505,4.505,4.487,4.487,4.487,4.469,4.469,4.469,4.469,4.469,4.469,4.469,4.451,4.451,4.451,4.433,4.433,4.415,4.398,4.38,4.363,4.329,4.312,4.279,4.246,4.214,4.198,4.166,4.151,4.12,4.104,4.089,4.074,4.059,4.03,4.015,4.001,3.972,3.944,3.916,3.888,3.861,3.848,3.835,3.835,3.835,3.861,3.875,3.916,3.944,4.001,4.059,4.104,4.166,4.214,4.246,4.279,4.312,4.346,4.363,4.363,4.363,4.363,4.346,4.329,4.312,4.295,4.279,4.262,4.246,4.214,4.214,4.182,4.182,4.166,4.151,4.135,4.135,4.135,4.12,4.12,4.104,4.104,4.089,4.089,4.074,4.059,4.059,4.045,4.03,4.015,4.001,3.986,3.986,4.001,4.015,4.03,4.045,4.059,4.089,4.12,4.166,4.198,4.23,4.246,4.262,4.262,4.262,4.262,4.246,4.23,4.214,4.198,4.166,4.151,4.135,4.12,4.089,4.074,4.059,4.03,4.015,4.001,3.986,3.972,3.958,3.944,3.93,3.93,3.916,3.916,3.916,3.902,3.902,3.902,3.902,3.888,3.888,3.888,3.888,3.888,3.902,3.902,3.902,3.916,3.944,3.972,4.001,4.03,4.059,4.104,4.151,4.198,4.246,4.279,4.312,4.346,4.38,4.398,4.415,4.433,4.433,4.433,4.433,4.415,4.398,4.398,4.363,4.346,4.329,4.312,4.295,4.262,4.262,4.246,4.23,4.23,4.214,4.198,4.198,4.198,4.198,4.198,4.182,4.182,4.182,4.166,4.166,4.151,4.135,4.12,4.104,4.089,4.089,4.074,4.059,4.045,4.03,4.015,4.001,3.986,3.986,4.001,4.03,4.059,4.089,4.12,4.182,4.23,4.262,4.312,4.312,4.312,4.312,4.329,4.329,4.329,4.312,4.312,4.295,4.295,4.295,4.295,4.279,4.279,4.279,4.279,4.279,4.279,4.279,4.279,4.279,4.279,4.279,4.262,4.262,4.262,4.262,4.246,4.246,4.23,4.214,4.198,4.182,4.166,4.151,4.135,4.12,4.104,4.089,4.089,4.074,4.059,4.059,4.074,4.089,4.104,4.12,4.135,4.151,4.166,4.182,4.198,4.214,4.198,4.198,4.198,4.182,4.166,4.135,4.104,4.074,4.045,4.015,4.001,3.972,3.972,3.958,3.944,3.944,3.944,3.93,3.93,3.944,3.944,3.958,3.958,3.972,3.972,3.986,4.001,4.015,4.015,4.015,4.015,4.015,4.015,4.015,4.015,4.015,4.015,4.03,4.015,4.015,4.03,4.03,4.015,4.015,4.015,4.001,4.001,3.986,3.986,3.986,3.986,3.972,3.972,3.972,3.958,3.958,3.958,3.944,3.93,3.93,3.916,3.916,3.902,3.888,3.875,3.861,3.848,3.835,3.821,3.808,3.795,3.795,3.782,3.782,3.782,3.782,3.795,3.795,3.795,3.782,3.782,3.782,3.782,3.782,3.769,3.769,3.757,3.757,3.744,3.731,3.719,3.706,3.706,3.694,3.682,3.67,3.657,3.645,3.622,3.61,3.598,3.575,3.563,3.541,3.518,3.496,3.474,3.452,3.431,3.42,3.399,3.389,3.379,3.368,3.358,3.358,3.348,3.338,3.328,3.328,3.318,3.308,3.298,3.288,3.279,3.259,3.25,3.24,3.231,3.212,3.194,3.185,3.166,3.148,3.131,3.113,3.104,3.087,3.078,3.061,3.053,3.045,3.036,3.02,3.011,3.003,2.995,2.979,2.971,2.963,2.947,2.932,2.924,2.909,2.894,2.886,2.871,2.856,2.849,2.842,2.834,2.82,2.813,2.806,2.799,2.791,2.784,2.777,2.764,2.757,2.75,2.743,2.73,2.723,2.723,2.716,2.71,2.703,2.696,2.69,2.683,2.677,2.67,2.664,2.658,2.651,2.645,2.639,2.632,2.626,2.626,2.62,2.614,2.608,2.601,2.595,2.589,2.583,2.571,2.565,2.559,2.548,2.536,2.53,2.524,2.513,2.502,2.49,2.485,2.474,2.468,2.463,2.457,2.446,2.446,2.441,2.436,2.425,2.42,2.414,2.409,2.404,2.399,2.388,2.383,2.378,2.373,2.368,2.363,2.358,2.353,2.348,2.343,2.333,2.328,2.323
3.808,3.848,3.902,3.944,3.972,4.03,4.059,4.104,4.135,4.166,4.214,4.246,4.295,4.329,4.346,4.38,4.398,4.415,4.433,4.451,4.451,4.469,4.469,4.487,4.487,4.505,4.487,4.487,4.487,4.487,4.487,4.469,4.451,4.451,4.451,4.451,4.451,4.451,4.433,4.433,4.433,4.415,4.415,4.398,4.398,4.38,4.363,4.346,4.329,4.295,4.279,4.246,4.214,4.182,4.166,4.135,4.12,4.104,4.089,4.074,4.059,4.03,4.015,3.986,3.972,3.944,3.916,3.902,3.875,3.848,3.835,3.835,3.821,3.835,3.848,3.875,3.916,3.958,4.001,4.059,4.12,4.182,4.23,4.262,4.312,4.329,4.363,4.363,4.363,4.363,4.346,4.346,4.312,4.312,4.279,4.262,4.246,4.214,4.198,4.182,4.166,4.151,4.135,4.12,4.12,4.104,4.104,4.089,4.089,4.089,4.074,4.074,4.059,4.059,4.045,4.03,4.015,4.001,3.986,3.972,3.972,3.958,3.972,3.986,4.001,4.015,4.045,4.074,4.104,4.151,4.182,4.214,4.23,4.246,4.246,4.246,4.246,4.23,4.214,4.198,4.182,4.166,4.135,4.12,4.104,4.089,4.059,4.045,4.015,4.001,3.986,3.958,3.944,3.93,3.93,3.916,3.902,3.902,3.902,3.902,3.888,3.888,3.888,3.888,3.888,3.888,3.888,3.888,3.888,3.888,3.888,3.888,3.916,3.93,3.958,3.986,4.015,4.059,4.104,4.135,4.182,4.23,4.279,4.312,4.346,4.363,4.398,4.398,4.415,4.415,4.415,4.415,4.415,4.38,4.363,4.363,4.346,4.312,4.295,4.279,4.262,4.246,4.23,4.214,4.198,4.198,4.198,4.182,4.182,4.182,4.182,4.166,4.166,4.166,4.151,4.135,4.12,4.104,4.089,4.074,4.059,4.045,4.03,4.015,4.001,3.986,3.972,3.958,3.958,3.958,3.972,4.001,4.015,4.059,4.104,4.151,4.198,4.246,4.279,4.295,4.312,4.312,4.312,4.312,4.312,4.312,4.312,4.295,4.295,4.295,4.279,4.279,4.279,4.279,4.279,4.279,4.279,4.279,4.279,4.279,4.279,4.279,4.262,4.262,4.262,4.246,4.246,4.23,4.23,4.214,4.198,4.182,4.166,4.151,4.12,4.104,4.104,4.089,4.074,4.059,4.045,4.045,4.059,4.074,4.074,4.089,4.104,4.12,4.151,4.166,4.182,4.182,4.182,4.182,4.182,4.166,4.151,4.12,4.089,4.059,4.03,4.001,3.972,3.958,3.944,3.93,3.916,3.916,3.902,3.902,3.902,3.916,3.916,3.916,3.93,3.944,3.944,3.958,3.958,3.972,3.972,3.972,3.972,3.972,3.972,3.972,3.972,3.972,3.972,3.972,3.972,3.986,3.986,3.986,3.986,3.986,3.986,3.986,3.972,3.972,3.972,3.972,3.958,3.958,3.944,3.944,3.93,3.93,3.93,3.916,3.916,3.902,3.902,3.888,3.888,3.875,3.861,3.848,3.835,3.821,3.808,3.795,3.782,3.782,3.782,3.769,3.769,3.769,3.769,3.769,3.769,3.769,3.769,3.769,3.757,3.757,3.757,3.744,3.744,3.731,3.731,3.719,3.706,3.694,3.682,3.682,3.67,3.657,3.645,3.633,3.622,3.61,3.598,3.575,3.563,3.541,3.518,3.496,3.474,3.452,3.431,3.41,3.399,3.389,3.379,3.368,3.358,3.348,3.348,3.338,3.328,3.328,3.318,3.308,3.298,3.288,3.269,3.259,3.25,3.24,3.222,3.212,3.194,3.175,3.157,3.139,3.131,3.113,3.096,3.087,3.07,3.061,3.053,3.036,3.028,3.02,3.003,2.995,2.987,2.979,2.963,2.955,2.94,2.932,2.916,2.909,2.894,2.886,2.871,2.864,2.849,2.842,2.834,2.82,2.813,2.806,2.799,2.791,2.777,2.771,2.764,2.757,2.75,2.736,2.73,2.723,2.723,2.716,2.71,2.703,2.696,2.69,2.683,2.677,2.677,2.664,2.658,2.658,2.651,2.645,2.632,2.632,2.626,2.62,2.614,2.608,2.601,2.595,2.589,2.583,2.577,2.565,2.559,2.548,2.542,2.53,2.524,2.513,2.507,2.496,2.485,2.479,2.468,2.463,2.457,2.446,2.446,2.436,2.43,2.425,2.42,2.414,2.409,2.399,2.394,2.388,2.378,2.373,2.373,2.368,2.363,2.358,2.353,2.348,2.338,2.333,2.328,2.323
3.821,3.861,3.902,3.958,3.986,4.03,4.074,4.12,4.151,4.182,4.214,4.246,4.279,4.312,4.346,4.363,4.38,4.415,4.415,4.433,4.451,4.451,4.469,4.469,4.487,4.487,4.487,4.487,4.469,4.469,4.469,4.451,4.433,4.433,4.415,4.415,4.415,4.415,4.415,4.398,4.398,4.38,4.38,4.363,4.363,4.346,4.329,4.312,4.279,4.262,4.23,4.198,4.182,4.151,4.135,4.12,4.104,4.089,4.074,4.045,4.03,4.015,3.986,3.972,3.944,3.916,3.888,3.861,3.848,3.835,3.821,3.808,3.808,3.821,3.848,3.875,3.916,3.958,4.015,4.059,4.135,4.182,4.246,4.262,4.295,4.329,4.346,4.363,4.346,4.346,4.329,4.312,4.295,4.279,4.262,4.23,4.214,4.198,4.166,4.151,4.135,4.135,4.12,4.089,4.089,4.074,4.074,4.074,4.059,4.059,4.045,4.045,4.03,4.03,4.015,4.001,3.986,3.972,3.958,3.944,3.944,3.93,3.944,3.958,3.972,3.986,4.015,4.045,4.089,4.135,4.166,4.198,4.214,4.23,4.23,4.246,4.246,4.214,4.198,4.198,4.182,4.151,4.135,4.12,4.089,4.074,4.045,4.03,4.001,3.986,3.958,3.944,3.93,3.916,3.916,3.902,3.888,3.888,3.888,3.875,3.875,3.875,3.875,3.875,3.875,3.875,3.875,3.875,3.875,3.875,3.875,3.888,3.902,3.916,3.944,3.972,4.015,4.045,4.089,4.135,4.182,4.23,4.279,4.312,4.346,4.363,4.38,4.398,4.398,4.415,4.415,4.415,4.398,4.38,4.363,4.346,4.329,4.312,4.279,4.262,4.246,4.23,4.23,4.214,4.198,4.182,4.182,4.166,4.166,4.166,4.166,4.151,4.151,4.151,4.135,4.12,4.104,4.074,4.059,4.045,4.03,4.015,4.001,3.986,3.972,3.958,3.944,3.93,3.916,3.93,3.944,3.958,3.986,4.03,4.074,4.12,4.166,4.214,4.246,4.279,4.295,4.295,4.312,4.312,4.312,4.295,4.295,4.295,4.295,4.279,4.279,4.279,4.279,4.279,4.279,4.279,4.279,4.279,4.279,4.279,4.279,4.279,4.262,4.262,4.262,4.246,4.246,4.23,4.214,4.214,4.198,4.182,4.166,4.151,4.12,4.104,4.089,4.074,4.059,4.045,4.045,4.03,4.03,4.045,4.059,4.059,4.074,4.089,4.12,4.135,4.151,4.166,4.166,4.166,4.166,4.151,4.12,4.104,4.074,4.059,4.015,3.986,3.958,3.944,3.93,3.916,3.902,3.888,3.888,3.875,3.875,3.888,3.888,3.888,3.902,3.902,3.902,3.916,3.93,3.93,3.93,3.93,3.93,3.93,3.93,3.93,3.93,3.93,3.93,3.93,3.93,3.944,3.944,3.958,3.958,3.958,3.958,3.958,3.958,3.958,3.944,3.944,3.944,3.93,3.93,3.916,3.916,3.902,3.902,3.902,3.888,3.888,3.888,3.875,3.875,3.861,3.848,3.835,3.821,3.808,3.795,3.782,3.782,3.769,3.769,3.769,3.757,3.757,3.757,3.757,3.757,3.744,3.744,3.744,3.744,3.731,3.731,3.731,3.719,3.719,3.706,3.694,3.694,3.682,3.67,3.67,3.657,3.645,3.633,3.622,3.622,3.61,3.598,3.575,3.552,3.541,3.518,3.496,3.474,3.452,3.42,3.41,3.389,3.379,3.368,3.368,3.358,3.348,3.348,3.338,3.328,3.318,3.308,3.308,3.298,3.279,3.269,3.259,3.25,3.231,3.222,3.203,3.194,3.175,3.157,3.139,3.122,3.104,3.096,3.078,3.07,3.053,3.045,3.036,3.02,3.011,3.003,2.987,2.979,2.971,2.963,2.955,2.94,2.932,2.916,2.909,2.894,2.886,2.871,2.864,2.849,2.842,2.834,2.827,2.813,2.806,2.799,2.791,2.777,2.771,2.764,2.75,2.743,2.736,2.73,2.723,2.723,2.716,2.71,2.703,2.696,2.69,2.683,2.677,2.677,2.664,2.658,2.658,2.651,2.645,2.632,2.632,2.626,2.62,2.614,2.608,2.601,2.595,2.589,2.583,2.577,2.565,2.559,2.553,2.542,2.536,2.524,2.519,2.507,2.502,2.49,2.479,2.474,2.463,2.457,2.446,2.441,2.436,2.43,2.425,2.414,2.409,2.404,2.399,2.394,2.383,2.378,2.373,2.368,2.363,2.363,2.353,2.348,2.343,2.338,2.333,2.328,2.318
3.821,3.861,3.902,3.944,3.986,4.015,4.059,4.104,4.135,4.166,4.198,4.23,4.262,4.295,4.329,4.346,4.363,4.38,4.398,4.415,4.415,4.433,4.433,4.451,4.469,4.469,4.469,4.469,4.469,4.451,4.451,4.433,4.433,4.415,4.398,4.398,4.398,4.398,4.38,4.38,4.363,4.363,4.346,4.346,4.329,4.312,4.279,4.262,4.246,4.214,4.198,4.166,4.151,4.12,4.104,4.089,4.074,4.059,4.045,4.03,4.015,3.986,3.958,3.944,3.916,3.888,3.875,3.848,3.821,3.808,3.808,3.795,3.795,3.808,3.835,3.875,3.902,3.958,4.015,4.074,4.135,4.182,4.23,4.279,4.295,4.329,4.329,4.329,4.329,4.329,4.312,4.279,4.262,4.246,4.23,4.214,4.182,4.166,4.135,4.12,4.12,4.104,4.089,4.074,4.059,4.059,4.045,4.045,4.03,4.03,4.03,4.015,4.015,4.001,3.986,3.972,3.958,3.944,3.93,3.93,3.916,3.902,3.916,3.93,3.944,3.958,4.001,4.03,4.074,4.12,4.151,4.182,4.198,4.214,4.23,4.23,4.23,4.214,4.198,4.182,4.166,4.151,4.135,4.104,4.089,4.059,4.03,4.015,3.986,3.972,3.944,3.93,3.916,3.902,3.902,3.888,3.875,3.875,3.861,3.861,3.861,3.861,3.861,3.848,3.861,3.861,3.861,3.861,3.861,3.861,3.861,3.861,3.875,3.902,3.93,3.972,4.001,4.045,4.089,4.151,4.198,4.246,4.295,4.329,4.346,4.363,4.38,4.398,4.415,4.415,4.415,4.398,4.398,4.38,4.363,4.346,4.329,4.295,4.279,4.262,4.246,4.23,4.214,4.198,4.198,4.182,4.166,4.166,4.166,4.151,4.151,4.151,4.135,4.135,4.12,4.104,4.089,4.059,4.045,4.015,4.001,3.986,3.972,3.958,3.944,3.93,3.916,3.902,3.902,3.902,3.916,3.944,3.972,4.001,4.045,4.104,4.135,4.198,4.23,4.262,4.279,4.295,4.295,4.295,4.295,4.295,4.295,4.295,4.295,4.279,4.279,4.279,4.279,4.279,4.279,4.279,4.279,4.279,4.279,4.279,4.279,4.279,4.279,4.262,4.262,4.246,4.246,4.23,4.214,4.198,4.182,4.166,4.151,4.135,4.12,4.104,4.089,4.074,4.045,4.03,4.03,4.015,4.015,4.015,4.03,4.045,4.059,4.074,4.089,4.104,4.12,4.135,4.135,4.135,4.135,4.12,4.104,4.089,4.059,4.03,4.015,3.986,3.958,3.944,3.93,3.902,3.888,3.875,3.875,3.875,3.861,3.875,3.875,3.875,3.875,3.888,3.888,3.902,3.902,3.916,3.916,3.902,3.916,3.902,3.902,3.902,3.902,3.902,3.902,3.902,3.902,3.916,3.916,3.93,3.93,3.944,3.944,3.944,3.944,3.944,3.944,3.93,3.93,3.916,3.916,3.902,3.888,3.888,3.888,3.875,3.875,3.861,3.861,3.861,3.848,3.848,3.835,3.821,3.808,3.795,3.795,3.782,3.769,3.769,3.757,3.757,3.757,3.744,3.744,3.744,3.744,3.731,3.731,3.731,3.719,3.719,3.706,3.706,3.694,3.694,3.682,3.682,3.67,3.657,3.657,3.645,3.633,3.633,3.622,3.622,3.61,3.61,3.586,3.575,3.552,3.529,3.507,3.485,3.474,3.442,3.42,3.399,3.389,3.379,3.368,3.358,3.358,3.348,3.348,3.338,3.328,3.318,3.308,3.298,3.288,3.279,3.269,3.259,3.25,3.231,3.222,3.203,3.194,3.175,3.157,3.139,3.122,3.104,3.087,3.078,3.061,3.053,3.045,3.028,3.02,3.011,2.995,2.987,2.979,2.971,2.955,2.947,2.94,2.932,2.916,2.909,2.901,2.886,2.878,2.864,2.856,2.849,2.842,2.827,2.82,2.813,2.799,2.791,2.777,2.771,2.764,2.75,2.743,2.736,2.73,2.723,2.723,2.716,2.71,2.703,2.696,2.69,2.683,2.683,2.677,2.67,2.658,2.658,2.651,2.639,2.632,2.626,2.62,2.614,2.614,2.608,2.601,2.589,2.589,2.583,2.577,2.565,2.559,2.553,2.542,2.536,2.53,2.519,2.513,2.502,2.496,2.485,2.474,2.468,2.457,2.452,2.446,2.436,2.43,2.425,2.414,2.409,2.404,2.399,2.388,2.383,2.378,2.373,2.368,2.363,2.363,2.353,2.348,2.343,2.338,2.333,2.328,2.318
3.821,3.861,3.902,3.944,3.986,4.015,4.059,4.104,4.135,4.166,4.198,4.23,4.262,4.279,4.312,4.329,4.346,4.363,4.38,4.38,4.398,4.415,4.415,4.433,4.433,4.451,4.451,4.451,4.451,4.433,4.415,4.415,4.398,4.38,4.38,4.363,4.363,4.363,4.346,4.346,4.329,4.329,4.312,4.312,4.295,4.262,4.246,4.23,4.214,4.182,4.166,4.135,4.104,4.089,4.074,4.059,4.045,4.03,4.015,4.001,3.972,3.958,3.944,3.916,3.888,3.861,3.835,3.808,3.795,3.795,3.782,3.782,3.782,3.795,3.821,3.861,3.902,3.958,4.001,4.074,4.12,4.182,4.23,4.246,4.279,4.295,4.312,4.312,4.295,4.295,4.262,4.262,4.23,4.214,4.198,4.182,4.151,4.135,4.12,4.104,4.089,4.074,4.059,4.045,4.03,4.03,4.015,4.015,4.015,4.001,4.001,4.001,3.986,3.986,3.972,3.958,3.944,3.93,3.916,3.902,3.888,3.888,3.888,3.902,3.916,3.944,3.986,4.015,4.059,4.104,4.135,4.166,4.198,4.214,4.23,4.23,4.23,4.214,4.198,4.182,4.166,4.151,4.12,4.104,4.074,4.045,4.03,4.001,3.986,3.958,3.93,3.916,3.902,3.902,3.888,3.875,3.861,3.861,3.861,3.848,3.848,3.848,3.848,3.848,3.848,3.848,3.848,3.848,3.848,3.848,3.848,3.861,3.875,3.888,3.93,3.958,4.001,4.045,4.104,4.151,4.214,4.262,4.295,4.346,4.363,4.38,4.398,4.415,4.415,4.415,4.415,4.415,4.398,4.38,4.363,4.346,4.312,4.295,4.279,4.262,4.23,4.214,4.198,4.198,4.182,4.166,4.166,4.151,4.151,4.151,4.135,4.135,4.12,4.12,4.104,4.089,4.074,4.045,4.015,4.001,3.986,3.958,3.944,3.93,3.916,3.902,3.888,3.888,3.888,3.888,3.902,3.916,3.944,3.986,4.03,4.074,4.12,4.166,4.214,4.246,4.262,4.279,4.279,4.279,4.295,4.295,4.279,4.279,4.279,4.279,4.279,4.279,4.279,4.279,4.279,4.279,4.279,4.279,4.279,4.279,4.279,4.279,4.279,4.262,4.262,4.246,4.246,4.23,4.214,4.198,4.182,4.166,4.151,4.135,4.12,4.104,4.089,4.059,4.045,4.015,4.001,4.001,3.986,4.001,4.001,4.015,4.03,4.045,4.059,4.074,4.089,4.104,4.104,4.104,4.104,4.089,4.089,4.074,4.059,4.03,4.001,3.986,3.958,3.944,3.93,3.902,3.888,3.888,3.875,3.861,3.861,3.861,3.861,3.861,3.861,3.861,3.875,3.875,3.875,3.888,3.888,3.875,3.875,3.875,3.875,3.875,3.875,3.861,3.875,3.875,3.875,3.875,3.888,3.902,3.902,3.902,3.916,3.916,3.916,3.916,3.902,3.902,3.888,3.888,3.875,3.861,3.861,3.848,3.848,3.848,3.835,3.835,3.835,3.835,3.835,3.821,3.808,3.808,3.795,3.795,3.782,3.769,3.769,3.757,3.744,3.744,3.744,3.744,3.731,3.731,3.731,3.719,3.719,3.706,3.706,3.694,3.694,3.682,3.67,3.67,3.67,3.657,3.645,3.645,3.633,3.633,3.622,3.622,3.61,3.61,3.61,3.598,3.586,3.575,3.552,3.529,3.507,3.485,3.463,3.442,3.42,3.399,3.389,3.379,3.368,3.358,3.348,3.348,3.338,3.338,3.328,3.318,3.308,3.298,3.288,3.279,3.269,3.259,3.25,3.231,3.222,3.203,3.185,3.166,3.148,3.131,3.122,3.104,3.087,3.07,3.061,3.045,3.036,3.028,3.02,3.003,2.995,2.979,2.971,2.963,2.955,2.947,2.94,2.924,2.916,2.909,2.901,2.894,2.878,2.871,2.864,2.856,2.842,2.834,2.82,2.813,2.806,2.791,2.777,2.771,2.764,2.75,2.743,2.736,2.73,2.723,2.723,2.716,2.71,2.703,2.696,2.69,2.683,2.677,2.677,2.664,2.658,2.651,2.645,2.639,2.632,2.626,2.62,2.614,2.608,2.601,2.595,2.589,2.583,2.577,2.577,2.565,2.559,2.553,2.548,2.536,2.53,2.524,2.513,2.507,2.496,2.485,2.479,2.468,2.463,2.452,2.446,2.436,2.43,2.425,2.42,2.409,2.404,2.399,2.394,2.383,2.378,2.373,2.368,2.363,2.363,2.358,2.353,2.348,2.338,2.333,2.328,2.323
3.808,3.861,3.902,3.93,3.972,4.001,4.045,4.089,4.12,4.151,4.166,4.198,4.23,4.246,4.279,4.295,4.312,4.329,4.329,4.346,4.363,4.38,4.38,4.398,4.398,4.415,4.415,4.415,4.415,4.398,4.398,4.38,4.363,4.346,4.346,4.329,4.329,4.329,4.312,4.295,4.295,4.279,4.262,4.262,4.246,4.23,4.198,4.182,4.151,4.135,4.12,4.089,4.074,4.045,4.03,4.015,4.015,4.001,3.986,3.972,3.944,3.916,3.902,3.875,3.848,3.835,3.808,3.795,3.782,3.769,3.757,3.757,3.769,3.782,3.821,3.861,3.902,3.944,4.001,4.059,4.12,4.182,4.214,4.246,4.262,4.279,4.279,4.279,4.279,4.262,4.246,4.23,4.198,4.182,4.166,4.151,4.12,4.104,4.089,4.074,4.059,4.045,4.03,4.015,4.015,4.001,4.001,4.001,4.001,4.001,3.986,3.986,3.972,3.972,3.958,3.944,3.93,3.916,3.902,3.888,3.875,3.861,3.875,3.888,3.902,3.93,3.958,4.001,4.045,4.089,4.12,4.166,4.182,4.214,4.23,4.23,4.23,4.214,4.198,4.182,4.166,4.135,4.12,4.089,4.059,4.045,4.015,3.986,3.972,3.944,3.916,3.902,3.888,3.888,3.875,3.861,3.861,3.848,3.848,3.848,3.848,3.835,3.835,3.835,3.835,3.835,3.835,3.835,3.835,3.835,3.835,3.848,3.861,3.875,3.916,3.958,4.001,4.045,4.104,4.166,4.23,4.279,4.329,4.363,4.38,4.415,4.433,4.415,4.433,4.433,4.433,4.415,4.398,4.38,4.363,4.346,4.329,4.295,4.279,4.246,4.23,4.214,4.198,4.182,4.182,4.166,4.166,4.151,4.151,4.135,4.135,4.12,4.12,4.104,4.089,4.074,4.059,4.03,4.001,3.972,3.958,3.944,3.93,3.916,3.902,3.888,3.888,3.875,3.875,3.875,3.888,3.902,3.93,3.958,4.001,4.045,4.089,4.135,4.182,4.214,4.246,4.262,4.262,4.279,4.279,4.279,4.279,4.279,4.279,4.279,4.262,4.262,4.262,4.262,4.262,4.262,4.262,4.279,4.279,4.279,4.279,4.279,4.262,4.262,4.262,4.246,4.23,4.23,4.214,4.198,4.182,4.166,4.135,4.12,4.104,4.089,4.059,4.045,4.015,4.001,3.986,3.972,3.972,3.972,3.972,3.972,3.986,4.001,4.015,4.03,4.045,4.059,4.059,4.059,4.059,4.059,4.045,4.045,4.03,4.001,3.986,3.958,3.944,3.916,3.902,3.888,3.875,3.861,3.848,3.848,3.835,3.835,3.835,3.835,3.835,3.835,3.835,3.835,3.848,3.848,3.848,3.848,3.848,3.835,3.835,3.835,3.835,3.835,3.835,3.835,3.835,3.848,3.848,3.861,3.861,3.875,3.875,3.888,3.888,3.875,3.875,3.861,3.861,3.848,3.835,3.835,3.821,3.821,3.821,3.808,3.808,3.808,3.808,3.808,3.795,3.795,3.795,3.782,3.782,3.782,3.769,3.757,3.757,3.744,3.744,3.744,3.731,3.731,3.719,3.719,3.719,3.706,3.706,3.694,3.682,3.682,3.67,3.657,3.657,3.645,3.645,3.633,3.633,3.622,3.622,3.61,3.61,3.61,3.598,3.598,3.598,3.586,3.575,3.563,3.541,3.529,3.507,3.485,3.463,3.431,3.41,3.399,3.379,3.368,3.368,3.358,3.348,3.348,3.338,3.338,3.328,3.318,3.308,3.298,3.288,3.279,3.269,3.259,3.25,3.231,3.222,3.203,3.185,3.166,3.148,3.131,3.113,3.096,3.078,3.07,3.053,3.045,3.036,3.02,3.011,3.003,2.995,2.979,2.971,2.963,2.955,2.947,2.932,2.924,2.916,2.909,2.901,2.894,2.886,2.878,2.864,2.856,2.849,2.834,2.827,2.813,2.806,2.799,2.784,2.771,2.764,2.757,2.743,2.736,2.736,2.73,2.723,2.716,2.71,2.703,2.696,2.69,2.683,2.677,2.67,2.664,2.658,2.651,2.645,2.632,2.626,2.62,2.614,2.608,2.608,2.601,2.595,2.589,2.583,2.577,2.571,2.565,2.559,2.553,2.548,2.542,2.53,2.524,2.519,2.507,2.502,2.49,2.479,2.474,2.463,2.457,2.446,2.441,2.43,2.425,2.42,2.409,2.404,2.399,2.394,2.388,2.383,2.378,2.373,2.368,2.363,2.358,2.353,2.348,2.343,2.338,2.328,2.323
3.808,3.861,3.902,3.93,3.958,4.001,4.03,4.074,4.104,4.135,4.151,4.182,4.198,4.23,4.246,4.262,4.279,4.295,4.312,4.312,4.329,4.346,4.346,4.363,4.363,4.38,4.38,4.38,4.363,4.363,4.363,4.346,4.329,4.312,4.312,4.295,4.279,4.279,4.262,4.262,4.246,4.246,4.23,4.214,4.182,4.166,4.151,4.12,4.104,4.089,4.074,4.045,4.03,4.015,4.001,3.986,3.972,3.958,3.944,3.93,3.916,3.888,3.875,3.848,3.821,3.795,3.782,3.769,3.757,3.744,3.744,3.744,3.757,3.769,3.808,3.848,3.888,3.944,4.001,4.045,4.104,4.166,4.214,4.23,4.246,4.262,4.262,4.246,4.246,4.23,4.214,4.182,4.166,4.151,4.135,4.12,4.104,4.074,4.059,4.045,4.03,4.015,4.001,4.001,3.986,3.986,3.986,3.986,3.972,3.972,3.972,3.958,3.958,3.958,3.944,3.93,3.916,3.902,3.888,3.875,3.861,3.861,3.861,3.861,3.888,3.902,3.944,3.986,4.03,4.074,4.12,4.151,4.182,4.198,4.23,4.23,4.214,4.214,4.198,4.182,4.166,4.151,4.12,4.089,4.059,4.03,4.001,3.986,3.958,3.93,3.916,3.902,3.888,3.875,3.861,3.861,3.848,3.848,3.848,3.835,3.835,3.835,3.835,3.821,3.821,3.821,3.821,3.821,3.821,3.821,3.821,3.835,3.848,3.875,3.916,3.958,4.015,4.059,4.12,4.182,4.246,4.295,4.346,4.398,4.415,4.433,4.433,4.451,4.451,4.451,4.433,4.433,4.415,4.398,4.363,4.346,4.329,4.312,4.279,4.262,4.23,4.214,4.214,4.198,4.182,4.166,4.166,4.151,4.151,4.135,4.12,4.12,4.104,4.089,4.074,4.059,4.045,4.015,4.001,3.972,3.958,3.93,3.916,3.902,3.888,3.888,3.875,3.861,3.861,3.861,3.875,3.888,3.902,3.944,3.972,4.015,4.059,4.104,4.151,4.182,4.198,4.214,4.214,4.23,4.23,4.23,4.23,4.23,4.23,4.23,4.23,4.23,4.23,4.23,4.23,4.214,4.214,4.23,4.23,4.23,4.23,4.23,4.23,4.214,4.23,4.214,4.198,4.198,4.182,4.166,4.151,4.12,4.104,4.074,4.059,4.03,4.015,4.001,3.972,3.958,3.944,3.93,3.93,3.916,3.93,3.93,3.93,3.944,3.958,3.972,3.986,3.986,4.001,4.001,4.001,4.001,4.001,3.986,3.972,3.958,3.944,3.93,3.902,3.888,3.875,3.861,3.848,3.835,3.821,3.821,3.808,3.808,3.808,3.808,3.808,3.808,3.808,3.808,3.808,3.808,3.808,3.808,3.808,3.808,3.795,3.795,3.795,3.795,3.795,3.795,3.795,3.808,3.821,3.821,3.821,3.835,3.848,3.848,3.848,3.848,3.835,3.835,3.821,3.821,3.808,3.795,3.795,3.782,3.782,3.782,3.782,3.769,3.769,3.769,3.769,3.769,3.769,3.769,3.769,3.757,3.757,3.744,3.744,3.731,3.731,3.719,3.719,3.719,3.706,3.706,3.694,3.694,3.682,3.67,3.67,3.657,3.645,3.645,3.633,3.633,3.622,3.622,3.61,3.61,3.598,3.598,3.586,3.598,3.586,3.586,3.586,3.586,3.575,3.563,3.541,3.518,3.496,3.474,3.452,3.431,3.41,3.389,3.379,3.368,3.358,3.358,3.348,3.348,3.338,3.338,3.328,3.318,3.308,3.298,3.288,3.279,3.269,3.259,3.25,3.231,3.222,3.203,3.185,3.166,3.148,3.131,3.113,3.096,3.078,3.061,3.053,3.045,3.028,3.02,3.011,3.003,2.987,2.979,2.971,2.963,2.955,2.94,2.932,2.924,2.916,2.909,2.901,2.894,2.886,2.878,2.871,2.864,2.856,2.842,2.827,2.82,2.806,2.799,2.784,2.777,2.764,2.757,2.743,2.743,2.736,2.73,2.723,2.716,2.71,2.703,2.696,2.69,2.683,2.677,2.67,2.658,2.651,2.645,2.639,2.626,2.62,2.614,2.608,2.601,2.601,2.595,2.589,2.583,2.577,2.571,2.571,2.565,2.559,2.553,2.548,2.542,2.536,2.524,2.519,2.513,2.502,2.496,2.485,2.479,2.468,2.463,2.452,2.441,2.436,2.425,2.42,2.414,2.409,2.399,2.394,2.388,2.383,2.378,2.373,2.368,2.363,2.358,2.353,2.348,2.343,2.338,2.333,2.328
3.795,3.848,3.888,3.916,3.944,3.986,4.015,4.059,4.089,4.104,4.135,4.166,4.182,4.198,4.214,4.23,4.246,4.262,4.279,4.279,4.295,4.295,4.312,4.312,4.329,4.329,4.346,4.329,4.329,4.329,4.312,4.312,4.295,4.279,4.262,4.246,4.246,4.246,4.23,4.214,4.198,4.182,4.166,4.151,4.135,4.12,4.104,4.089,4.059,4.045,4.03,4.015,3.986,3.972,3.972,3.958,3.944,3.93,3.916,3.888,3.875,3.848,3.835,3.808,3.795,3.769,3.757,3.744,3.731,3.731,3.731,3.731,3.744,3.769,3.808,3.848,3.888,3.93,3.986,4.045,4.104,4.151,4.198,4.214,4.23,4.23,4.23,4.23,4.214,4.198,4.182,4.166,4.135,4.12,4.104,4.089,4.074,4.045,4.03,4.015,4.001,4.001,3.986,3.972,3.958,3.958,3.958,3.958,3.958,3.958,3.958,3.958,3.944,3.944,3.93,3.916,3.902,3.888,3.875,3.861,3.848,3.848,3.848,3.848,3.875,3.902,3.93,3.972,4.015,4.074,4.104,4.151,4.182,4.214,4.23,4.23,4.23,4.214,4.198,4.182,4.166,4.151,4.12,4.089,4.059,4.03,4.001,3.972,3.958,3.93,3.902,3.888,3.875,3.875,3.861,3.848,3.848,3.848,3.835,3.835,3.835,3.835,3.821,3.821,3.821,3.821,3.808,3.808,3.808,3.808,3.808,3.821,3.835,3.861,3.902,3.958,4.015,4.059,4.135,4.198,4.279,4.329,4.38,4.398,4.433,4.451,4.469,4.451,4.451,4.451,4.451,4.433,4.433,4.398,4.38,4.346,4.329,4.295,4.279,4.246,4.246,4.23,4.214,4.198,4.182,4.166,4.151,4.135,4.12,4.104,4.089,4.074,4.059,4.045,4.015,4.001,3.986,3.972,3.944,3.93,3.916,3.888,3.875,3.875,3.861,3.848,3.848,3.848,3.848,3.848,3.848,3.861,3.875,3.902,3.93,3.972,4.001,4.045,4.074,4.104,4.12,4.135,4.151,4.151,4.151,4.151,4.151,4.151,4.151,4.151,4.151,4.151,4.151,4.151,4.151,4.151,4.151,4.151,4.151,4.151,4.151,4.151,4.151,4.135,4.135,4.135,4.12,4.12,4.104,4.089,4.074,4.059,4.045,4.015,4.001,3.972,3.958,3.944,3.93,3.916,3.902,3.888,3.875,3.875,3.875,3.875,3.875,3.888,3.888,3.902,3.93,3.93,3.93,3.93,3.93,3.93,3.944,3.93,3.916,3.916,3.902,3.888,3.875,3.861,3.848,3.835,3.821,3.808,3.808,3.795,3.795,3.782,3.782,3.782,3.782,3.782,3.782,3.782,3.782,3.782,3.782,3.769,3.769,3.769,3.769,3.757,3.757,3.757,3.757,3.757,3.769,3.782,3.782,3.782,3.795,3.808,3.808,3.808,3.821,3.808,3.808,3.808,3.795,3.782,3.782,3.769,3.769,3.757,3.757,3.757,3.757,3.757,3.757,3.757,3.757,3.757,3.757,3.744,3.744,3.744,3.744,3.731,3.719,3.719,3.719,3.706,3.706,3.706,3.694,3.694,3.682,3.682,3.67,3.657,3.645,3.633,3.633,3.622,3.622,3.61,3.61,3.598,3.598,3.586,3.586,3.575,3.575,3.575,3.575,3.575,3.575,3.575,3.563,3.552,3.529,3.518,3.496,3.474,3.452,3.42,3.41,3.389,3.379,3.368,3.358,3.358,3.348,3.338,3.338,3.328,3.328,3.318,3.308,3.298,3.288,3.279,3.269,3.259,3.24,3.231,3.222,3.203,3.185,3.166,3.148,3.131,3.104,3.096,3.078,3.061,3.053,3.036,3.028,3.02,3.011,2.995,2.987,2.979,2.971,2.963,2.955,2.94,2.932,2.924,2.916,2.909,2.901,2.894,2.894,2.886,2.878,2.864,2.856,2.842,2.834,2.82,2.806,2.799,2.784,2.777,2.764,2.757,2.75,2.743,2.736,2.73,2.723,2.716,2.71,2.703,2.696,2.69,2.683,2.677,2.67,2.658,2.651,2.645,2.632,2.626,2.62,2.614,2.608,2.601,2.595,2.589,2.589,2.583,2.577,2.571,2.565,2.559,2.553,2.548,2.542,2.542,2.536,2.53,2.524,2.513,2.507,2.496,2.49,2.479,2.468,2.463,2.452,2.441,2.436,2.425,2.42,2.414,2.409,2.399,2.394,2.388,2.383,2.378,2.373,2.368,2.363,2.363,2.358,2.348,2.343,2.338,2.333,2.328
3.782,3.835,3.875,3.902,3.93,3.972,4.001,4.045,4.074,4.089,4.104,4.135,4.151,4.166,4.182,4.198,4.214,4.23,4.23,4.246,4.246,4.262,4.262,4.279,4.295,4.295,4.295,4.295,4.295,4.295,4.279,4.262,4.262,4.246,4.23,4.214,4.198,4.198,4.182,4.166,4.151,4.135,4.12,4.104,4.089,4.074,4.059,4.045,4.015,4.001,3.986,3.958,3.944,3.93,3.916,3.902,3.888,3.888,3.861,3.848,3.835,3.821,3.795,3.782,3.769,3.744,3.731,3.719,3.719,3.719,3.719,3.731,3.744,3.757,3.795,3.835,3.888,3.93,3.986,4.03,4.089,4.135,4.182,4.198,4.214,4.214,4.214,4.198,4.198,4.182,4.151,4.135,4.12,4.104,4.074,4.059,4.045,4.03,4.001,3.986,3.986,3.972,3.958,3.944,3.944,3.944,3.944,3.944,3.944,3.944,3.944,3.93,3.93,3.93,3.916,3.902,3.888,3.875,3.861,3.848,3.835,3.835,3.835,3.848,3.861,3.888,3.93,3.972,4.015,4.059,4.104,4.151,4.182,4.214,4.23,4.23,4.23,4.214,4.198,4.182,4.166,4.135,4.12,4.089,4.059,4.03,4.001,3.972,3.944,3.93,3.902,3.888,3.875,3.861,3.848,3.848,3.835,3.835,3.835,3.835,3.821,3.821,3.808,3.808,3.808,3.808,3.795,3.795,3.782,3.795,3.795,3.808,3.821,3.848,3.875,3.93,3.986,4.045,4.12,4.182,4.23,4.295,4.346,4.38,4.398,4.433,4.433,4.433,4.433,4.433,4.415,4.398,4.38,4.363,4.329,4.295,4.262,4.246,4.23,4.214,4.182,4.166,4.151,4.135,4.12,4.104,4.089,4.059,4.045,4.03,4.015,4.001,4.001,3.986,3.958,3.944,3.93,3.916,3.902,3.888,3.861,3.848,3.835,3.835,3.835,3.821,3.808,3.808,3.808,3.808,3.821,3.821,3.835,3.861,3.888,3.916,3.944,3.972,4.001,4.03,4.045,4.059,4.059,4.059,4.074,4.074,4.074,4.074,4.074,4.074,4.074,4.074,4.074,4.074,4.074,4.074,4.074,4.074,4.074,4.074,4.074,4.074,4.074,4.059,4.059,4.059,4.045,4.03,4.015,4.015,4.001,3.986,3.972,3.944,3.944,3.93,3.916,3.888,3.875,3.861,3.848,3.848,3.835,3.835,3.835,3.835,3.835,3.835,3.848,3.861,3.875,3.875,3.888,3.888,3.888,3.875,3.888,3.888,3.875,3.861,3.861,3.848,3.835,3.821,3.821,3.808,3.795,3.782,3.782,3.769,3.769,3.757,3.757,3.757,3.744,3.757,3.744,3.744,3.757,3.757,3.744,3.744,3.744,3.744,3.744,3.731,3.731,3.719,3.731,3.731,3.731,3.744,3.757,3.757,3.757,3.769,3.769,3.782,3.782,3.782,3.782,3.769,3.769,3.757,3.757,3.744,3.744,3.744,3.744,3.731,3.731,3.731,3.731,3.731,3.731,3.731,3.744,3.731,3.731,3.731,3.731,3.719,3.719,3.719,3.706,3.706,3.706,3.694,3.694,3.682,3.682,3.67,3.657,3.645,3.633,3.622,3.622,3.61,3.598,3.598,3.586,3.575,3.575,3.575,3.563,3.563,3.563,3.563,3.563,3.563,3.563,3.563,3.552,3.541,3.529,3.507,3.496,3.474,3.452,3.42,3.41,3.389,3.379,3.368,3.358,3.348,3.348,3.338,3.338,3.328,3.318,3.318,3.308,3.298,3.288,3.279,3.269,3.259,3.24,3.231,3.212,3.194,3.175,3.157,3.139,3.122,3.104,3.087,3.07,3.061,3.053,3.036,3.028,3.02,3.011,2.995,2.987,2.979,2.971,2.963,2.955,2.94,2.932,2.924,2.916,2.909,2.909,2.901,2.894,2.886,2.878,2.871,2.864,2.849,2.834,2.827,2.813,2.799,2.791,2.777,2.764,2.757,2.75,2.743,2.736,2.73,2.723,2.716,2.71,2.703,2.696,2.69,2.677,2.67,2.664,2.658,2.645,2.639,2.626,2.62,2.614,2.608,2.601,2.595,2.589,2.583,2.583,2.577,2.571,2.565,2.559,2.559,2.553,2.548,2.542,2.536,2.53,2.53,2.519,2.513,2.507,2.496,2.49,2.479,2.474,2.463,2.452,2.446,2.436,2.43,2.425,2.414,2.409,2.404,2.399,2.394,2.388,2.383,2.378,2.373,2.368,2.363,2.358,2.353,2.343,2.338,2.333,2.328
3.769,3.808,3.861,3.888,3.916,3.958,3.986,4.03,4.059,4.074,4.104,4.12,4.135,4.151,4.166,4.182,4.182,4.198,4.198,4.214,4.23,4.23,4.246,4.246,4.246,4.262,4.262,4.262,4.246,4.246,4.246,4.23,4.214,4.198,4.182,4.166,4.151,4.135,4.12,4.104,4.089,4.089,4.074,4.059,4.045,4.015,4.001,3.986,3.972,3.958,3.944,3.93,3.902,3.902,3.888,3.875,3.861,3.848,3.835,3.821,3.808,3.782,3.769,3.757,3.744,3.731,3.719,3.706,3.706,3.706,3.719,3.719,3.731,3.757,3.795,3.835,3.888,3.93,3.986,4.03,4.089,4.135,4.166,4.182,4.198,4.198,4.198,4.182,4.166,4.151,4.135,4.104,4.089,4.074,4.059,4.03,4.015,3.986,3.972,3.958,3.958,3.944,3.944,3.93,3.916,3.93,3.93,3.93,3.93,3.93,3.916,3.916,3.916,3.916,3.902,3.888,3.875,3.861,3.848,3.835,3.821,3.821,3.821,3.835,3.848,3.875,3.916,3.958,4.001,4.045,4.089,4.135,4.166,4.198,4.214,4.214,4.214,4.198,4.182,4.166,4.151,4.12,4.104,4.059,4.03,4.001,3.958,3.93,3.902,3.875,3.861,3.848,3.835,3.821,3.821,3.808,3.808,3.795,3.795,3.795,3.795,3.782,3.782,3.769,3.769,3.769,3.769,3.769,3.769,3.757,3.769,3.769,3.782,3.821,3.848,3.888,3.944,4.001,4.045,4.104,4.151,4.214,4.246,4.279,4.279,4.312,4.312,4.329,4.329,4.329,4.329,4.312,4.295,4.262,4.246,4.214,4.182,4.151,4.151,4.12,4.104,4.089,4.074,4.045,4.045,4.03,4.015,3.986,3.972,3.958,3.944,3.93,3.93,3.916,3.888,3.888,3.875,3.861,3.848,3.835,3.821,3.808,3.795,3.795,3.782,3.782,3.782,3.782,3.782,3.782,3.782,3.782,3.795,3.821,3.835,3.861,3.888,3.916,3.93,3.958,3.972,3.986,3.986,3.986,4.001,4.001,4.001,4.001,4.001,4.001,4.001,4.001,4.001,4.001,4.001,4.001,4.001,4.001,4.001,4.001,4.001,4.001,3.986,3.986,3.986,3.986,3.972,3.958,3.958,3.944,3.93,3.916,3.902,3.888,3.875,3.861,3.848,3.848,3.835,3.821,3.808,3.795,3.795,3.782,3.782,3.782,3.795,3.795,3.795,3.808,3.808,3.821,3.821,3.821,3.821,3.835,3.848,3.848,3.835,3.835,3.821,3.808,3.795,3.795,3.782,3.769,3.757,3.757,3.744,3.744,3.731,3.731,3.719,3.719,3.719,3.719,3.719,3.706,3.719,3.719,3.706,3.706,3.706,3.706,3.706,3.706,3.694,3.694,3.694,3.706,3.706,3.719,3.719,3.719,3.731,3.731,3.744,3.744,3.744,3.744,3.744,3.744,3.744,3.731,3.731,3.731,3.719,3.719,3.719,3.719,3.719,3.719,3.719,3.719,3.719,3.719,3.719,3.719,3.719,3.719,3.719,3.706,3.706,3.706,3.706,3.706,3.694,3.694,3.682,3.682,3.67,3.657,3.645,3.633,3.622,3.61,3.598,3.586,3.575,3.575,3.563,3.563,3.563,3.552,3.552,3.552,3.552,3.552,3.541,3.552,3.552,3.552,3.541,3.541,3.518,3.507,3.485,3.463,3.452,3.431,3.41,3.389,3.379,3.368,3.358,3.348,3.348,3.338,3.338,3.328,3.318,3.308,3.308,3.298,3.288,3.279,3.259,3.25,3.24,3.231,3.212,3.194,3.175,3.157,3.139,3.122,3.104,3.087,3.07,3.061,3.045,3.036,3.028,3.02,3.011,3.003,2.987,2.979,2.971,2.963,2.955,2.94,2.932,2.924,2.916,2.916,2.909,2.901,2.901,2.886,2.878,2.878,2.864,2.856,2.834,2.827,2.813,2.799,2.791,2.777,2.764,2.757,2.75,2.743,2.736,2.73,2.723,2.716,2.71,2.703,2.696,2.69,2.677,2.67,2.664,2.658,2.645,2.639,2.626,2.614,2.608,2.601,2.595,2.589,2.583,2.583,2.577,2.571,2.571,2.565,2.559,2.553,2.548,2.542,2.536,2.536,2.53,2.524,2.519,2.513,2.507,2.496,2.49,2.479,2.474,2.463,2.452,2.446,2.436,2.43,2.425,2.414,2.409,2.404,2.399,2.394,2.388,2.383,2.378,2.373,2.368,2.363,2.358,2.353,2.343,2.338,2.333,2.328
3.769,3.808,3.848,3.875,3.916,3.944,3.986,4.015,4.059,4.074,4.089,4.104,4.135,4.135,4.151,4.166,4.166,4.166,4.182,4.198,4.198,4.214,4.214,4.214,4.23,4.23,4.23,4.23,4.214,4.214,4.198,4.198,4.182,4.166,4.135,4.135,4.104,4.089,4.074,4.059,4.045,4.03,4.015,4.001,3.986,3.972,3.958,3.944,3.93,3.916,3.888,3.875,3.861,3.848,3.835,3.821,3.821,3.808,3.795,3.782,3.769,3.757,3.744,3.731,3.719,3.706,3.706,3.706,3.694,3.694,3.706,3.719,3.731,3.744,3.782,3.821,3.875,3.916,3.972,4.015,4.074,4.104,4.151,4.166,4.166,4.166,4.166,4.151,4.151,4.135,4.12,4.089,4.074,4.059,4.03,4.015,3.986,3.958,3.944,3.93,3.93,3.916,3.916,3.902,3.902,3.902,3.888,3.888,3.888,3.888,3.875,3.861,3.861,3.861,3.848,3.848,3.835,3.821,3.808,3.808,3.795,3.795,3.795,3.808,3.821,3.848,3.888,3.93,3.958,4.001,4.045,4.074,4.12,4.135,4.151,4.151,4.151,4.151,4.135,4.12,4.089,4.074,4.03,4.001,3.972,3.944,3.916,3.888,3.861,3.835,3.821,3.808,3.795,3.795,3.782,3.782,3.769,3.769,3.769,3.757,3.757,3.744,3.744,3.744,3.744,3.744,3.731,3.731,3.731,3.731,3.744,3.744,3.757,3.782,3.808,3.861,3.888,3.944,3.986,4.03,4.074,4.12,4.151,4.166,4.166,4.182,4.198,4.198,4.198,4.198,4.198,4.182,4.182,4.166,4.151,4.104,4.089,4.074,4.059,4.045,4.03,4.001,3.986,3.972,3.958,3.944,3.93,3.916,3.902,3.888,3.875,3.875,3.861,3.861,3.835,3.835,3.821,3.808,3.795,3.795,3.782,3.769,3.769,3.757,3.757,3.744,3.744,3.744,3.744,3.744,3.744,3.757,3.757,3.782,3.795,3.808,3.835,3.848,3.861,3.888,3.902,3.916,3.916,3.916,3.916,3.916,3.916,3.93,3.93,3.93,3.93,3.93,3.93,3.93,3.93,3.93,3.93,3.93,3.93,3.93,3.916,3.916,3.916,3.916,3.916,3.916,3.902,3.888,3.875,3.875,3.861,3.848,3.835,3.821,3.821,3.808,3.795,3.782,3.769,3.757,3.757,3.744,3.744,3.731,3.731,3.744,3.744,3.744,3.744,3.757,3.757,3.769,3.769,3.769,3.769,3.782,3.782,3.795,3.795,3.782,3.782,3.769,3.757,3.757,3.744,3.731,3.719,3.706,3.706,3.694,3.694,3.682,3.682,3.682,3.682,3.682,3.67,3.67,3.682,3.682,3.682,3.682,3.682,3.682,3.682,3.67,3.67,3.67,3.67,3.67,3.682,3.682,3.694,3.694,3.706,3.706,3.706,3.706,3.719,3.719,3.719,3.719,3.719,3.719,3.706,3.706,3.706,3.706,3.706,3.694,3.694,3.694,3.694,3.706,3.706,3.706,3.706,3.706,3.706,3.706,3.706,3.706,3.694,3.694,3.694,3.694,3.694,3.682,3.67,3.67,3.657,3.645,3.633,3.61,3.61,3.598,3.586,3.575,3.563,3.563,3.552,3.552,3.541,3.541,3.541,3.541,3.529,3.529,3.529,3.529,3.541,3.541,3.529,3.529,3.507,3.496,3.485,3.463,3.452,3.431,3.41,3.389,3.379,3.368,3.358,3.348,3.348,3.338,3.338,3.328,3.318,3.308,3.298,3.298,3.288,3.269,3.259,3.25,3.24,3.222,3.212,3.194,3.175,3.157,3.131,3.113,3.096,3.087,3.07,3.053,3.045,3.036,3.028,3.02,3.011,3.003,2.987,2.979,2.979,2.963,2.955,2.947,2.932,2.924,2.916,2.916,2.909,2.901,2.901,2.894,2.886,2.878,2.871,2.856,2.842,2.827,2.82,2.806,2.791,2.777,2.764,2.757,2.75,2.743,2.736,2.73,2.723,2.716,2.71,2.703,2.696,2.69,2.683,2.67,2.664,2.658,2.645,2.632,2.626,2.614,2.601,2.595,2.589,2.583,2.583,2.577,2.571,2.565,2.565,2.559,2.553,2.548,2.542,2.536,2.536,2.53,2.524,2.519,2.513,2.507,2.502,2.496,2.49,2.479,2.474,2.463,2.452,2.446,2.436,2.43,2.42,2.414,2.409,2.404,2.399,2.394,2.388,2.383,2.378,2.373,2.368,2.363,2.358,2.353,2.343,2.343,2.338,2.333
3.744,3.782,3.821,3.848,3.888,3.93,3.972,4.001,4.045,4.074,4.089,4.104,4.12,4.135,4.135,4.151,4.151,4.151,4.166,4.166,4.182,4.182,4.182,4.182,4.182,4.198,4.198,4.182,4.182,4.182,4.166,4.151,4.151,4.12,4.104,4.089,4.059,4.045,4.03,4.015,4.001,3.986,3.972,3.958,3.944,3.93,3.916,3.902,3.875,3.861,3.848,3.835,3.808,3.808,3.795,3.782,3.769,3.769,3.757,3.744,3.731,3.719,3.719,3.706,3.694,3.694,3.694,3.682,3.682,3.694,3.694,3.694,3.706,3.731,3.769,3.808,3.848,3.888,3.93,3.972,4.015,4.045,4.074,4.089,4.104,4.089,4.089,4.089,4.074,4.059,4.045,4.015,4.001,3.986,3.972,3.93,3.916,3.902,3.888,3.875,3.875,3.861,3.861,3.848,3.835,3.835,3.835,3.835,3.835,3.821,3.808,3.808,3.795,3.808,3.808,3.795,3.782,3.782,3.769,3.769,3.769,3.769,3.769,3.769,3.795,3.821,3.848,3.888,3.93,3.958,4.001,4.015,4.045,4.074,4.089,4.089,4.074,4.059,4.045,4.03,4.015,4.001,3.972,3.944,3.916,3.888,3.861,3.835,3.808,3.795,3.769,3.757,3.757,3.744,3.731,3.731,3.731,3.731,3.731,3.719,3.719,3.719,3.719,3.719,3.706,3.706,3.706,3.694,3.694,3.706,3.706,3.706,3.719,3.744,3.782,3.808,3.848,3.888,3.93,3.958,3.986,4.015,4.03,4.045,4.059,4.074,4.074,4.089,4.089,4.089,4.104,4.089,4.089,4.074,4.045,4.03,4.015,3.986,3.972,3.958,3.944,3.93,3.916,3.902,3.888,3.875,3.861,3.848,3.835,3.821,3.808,3.808,3.808,3.795,3.782,3.769,3.769,3.757,3.744,3.744,3.731,3.731,3.719,3.719,3.719,3.706,3.706,3.706,3.706,3.706,3.706,3.706,3.719,3.731,3.744,3.757,3.769,3.782,3.795,3.808,3.821,3.835,3.835,3.848,3.848,3.848,3.848,3.848,3.861,3.861,3.861,3.861,3.861,3.861,3.861,3.861,3.861,3.861,3.861,3.848,3.848,3.848,3.835,3.835,3.848,3.835,3.821,3.808,3.808,3.795,3.782,3.782,3.769,3.757,3.757,3.744,3.731,3.731,3.719,3.719,3.706,3.706,3.694,3.694,3.694,3.694,3.694,3.694,3.694,3.694,3.706,3.706,3.719,3.719,3.719,3.731,3.744,3.744,3.744,3.744,3.731,3.731,3.719,3.719,3.706,3.682,3.682,3.67,3.67,3.657,3.657,3.645,3.645,3.645,3.633,3.633,3.633,3.633,3.633,3.645,3.645,3.645,3.645,3.645,3.645,3.645,3.645,3.633,3.645,3.645,3.645,3.657,3.657,3.67,3.67,3.682,3.682,3.682,3.682,3.694,3.694,3.694,3.694,3.694,3.694,3.694,3.682,3.682,3.682,3.682,3.682,3.682,3.682,3.682,3.694,3.694,3.694,3.694,3.694,3.694,3.694,3.694,3.682,3.682,3.682,3.682,3.682,3.67,3.657,3.645,3.633,3.622,3.622,3.61,3.598,3.586,3.575,3.563,3.552,3.541,3.541,3.529,3.529,3.529,3.518,3.518,3.518,3.518,3.518,3.518,3.518,3.518,3.518,3.507,3.496,3.496,3.474,3.463,3.442,3.431,3.41,3.399,3.379,3.368,3.358,3.358,3.348,3.338,3.338,3.328,3.318,3.308,3.298,3.288,3.279,3.269,3.259,3.25,3.231,3.222,3.203,3.185,3.166,3.148,3.131,3.113,3.096,3.078,3.07,3.053,3.045,3.036,3.028,3.02,3.011,3.003,2.995,2.987,2.979,2.971,2.955,2.947,2.94,2.932,2.924,2.916,2.909,2.909,2.901,2.894,2.886,2.878,2.871,2.856,2.842,2.827,2.82,2.806,2.791,2.777,2.764,2.757,2.75,2.743,2.736,2.73,2.723,2.716,2.71,2.703,2.696,2.69,2.683,2.677,2.664,2.651,2.645,2.632,2.62,2.614,2.601,2.595,2.589,2.583,2.577,2.571,2.565,2.565,2.559,2.553,2.548,2.542,2.536,2.53,2.53,2.524,2.519,2.519,2.513,2.507,2.502,2.49,2.485,2.479,2.468,2.463,2.452,2.441,2.436,2.43,2.42,2.414,2.409,2.404,2.394,2.388,2.383,2.378,2.378,2.373,2.368,2.363,2.358,2.348,2.343,2.343,2.338,2.333
3.731,3.769,3.808,3.835,3.888,3.93,3.972,4.015,4.045,4.074,4.104,4.104,4.12,4.135,4.135,4.151,4.151,4.151,4.151,4.166,4.166,4.182,4.166,4.166,4.166,4.166,4.166,4.166,4.166,4.151,4.135,4.12,4.089,4.089,4.059,4.03,4.001,3.986,3.958,3.944,3.93,3.916,3.902,3.902,3.888,3.875,3.861,3.848,3.835,3.808,3.795,3.769,3.757,3.744,3.731,3.719,3.719,3.706,3.706,3.694,3.682,3.682,3.682,3.67,3.657,3.657,3.657,3.67,3.67,3.67,3.67,3.682,3.682,3.706,3.731,3.769,3.795,3.835,3.875,3.902,3.944,3.972,4.001,4.001,4.015,4.001,4.001,4.001,3.986,3.972,3.958,3.944,3.93,3.916,3.888,3.875,3.848,3.835,3.821,3.808,3.821,3.808,3.795,3.782,3.782,3.782,3.769,3.769,3.769,3.769,3.757,3.757,3.744,3.757,3.757,3.757,3.744,3.731,3.731,3.731,3.731,3.731,3.731,3.744,3.757,3.782,3.821,3.848,3.875,3.902,3.93,3.958,3.972,3.986,4.001,4.001,4.001,3.986,3.972,3.958,3.944,3.93,3.902,3.875,3.848,3.835,3.808,3.782,3.769,3.744,3.731,3.719,3.719,3.706,3.706,3.694,3.694,3.694,3.694,3.694,3.694,3.682,3.682,3.682,3.682,3.682,3.67,3.67,3.67,3.67,3.682,3.682,3.694,3.706,3.744,3.769,3.795,3.835,3.861,3.875,3.902,3.93,3.93,3.944,3.944,3.944,3.972,3.972,3.986,3.986,4.001,3.986,3.986,3.972,3.958,3.944,3.916,3.902,3.902,3.875,3.861,3.848,0,3.835,3.808,3.795,3.782,3.769,3.757,3.744,3.744,3.731,3.731,3.731,3.719,3.719,3.706,3.706,3.694,3.694,3.682,3.682,3.67,3.67,3.67,3.67,3.657,3.657,3.657,3.67,3.657,3.67,3.67,3.682,3.694,3.694,3.706,3.719,3.731,3.744,3.757,3.769,3.769,3.769,3.769,3.769,3.769,3.782,3.782,3.782,3.782,3.795,3.795,3.795,3.795,3.782,3.782,3.782,3.782,3.782,3.782,3.769,3.769,3.757,3.769,3.757,3.744,3.731,3.731,3.719,3.719,3.706,3.706,3.694,3.682,3.682,3.682,3.67,3.67,3.657,3.657,3.645,3.645,3.633,3.645,3.645,3.645,3.645,3.645,3.645,3.657,3.657,3.67,3.67,3.67,3.682,3.694,3.694,3.694,3.694,3.682,3.682,3.67,3.67,3.657,3.645,3.633,3.633,3.622,3.622,3.61,3.61,3.598,3.598,3.598,3.598,3.598,3.598,3.598,3.598,3.598,3.61,3.61,3.61,3.61,3.61,3.61,3.61,3.61,3.622,3.622,3.622,3.633,3.633,3.633,3.645,3.645,3.645,3.657,3.657,3.657,3.657,3.657,3.657,3.67,3.67,3.67,3.67,3.657,3.657,3.67,3.67,3.67,3.682,3.682,3.682,3.682,3.682,3.682,3.682,3.682,3.682,3.67,3.67,3.67,3.67,3.657,3.645,3.645,3.633,3.622,3.61,3.61,3.598,3.586,3.563,3.552,3.552,3.541,3.529,3.518,3.518,3.518,3.507,3.507,3.507,3.507,3.507,3.507,3.507,3.507,3.507,3.507,3.496,3.496,3.485,3.474,3.452,3.442,3.431,3.41,3.399,3.389,3.368,3.358,3.358,3.348,3.338,3.338,3.328,3.318,3.308,3.298,3.288,3.279,3.269,3.259,3.24,3.222,3.212,3.194,3.175,3.157,3.139,3.122,3.104,3.087,3.078,3.061,3.053,3.045,3.036,3.028,3.02,3.011,3.003,2.995,2.987,2.979,2.971,2.955,2.947,2.94,2.932,2.924,2.916,2.916,2.909,2.901,2.894,2.886,2.878,2.871,2.856,2.842,2.827,2.82,2.806,2.791,2.777,2.764,2.757,2.75,2.743,2.736,2.73,2.723,2.716,2.71,2.71,2.703,2.69,2.683,2.677,2.67,2.658,2.645,2.632,2.62,2.608,2.601,2.589,2.583,2.577,2.571,2.571,2.565,2.559,2.553,2.553,2.548,2.542,2.536,2.53,2.524,2.519,2.519,2.513,2.507,2.502,2.496,2.49,2.479,2.474,2.468,2.457,2.452,2.441,2.436,2.425,2.42,2.414,2.409,2.404,2.394,2.388,2.383,2.378,2.373,2.373,2.363,2.358,2.353,2.348,2.343,2.343,2.338,2.333
3.706,3.731,3.782,3.821,3.861,3.902,3.944,4.001,4.03,4.059,4.089,4.104,4.12,4.135,4.135,4.135,4.151,4.151,4.151,4.151,4.151,4.166,4.166,4.166,4.151,4.151,4.135,4.135,4.104,4.089,4.059,4.045,4.015,4.001,3.972,3.944,3.93,3.902,3.875,3.861,3.861,3.848,3.848,3.835,3.821,3.808,3.795,3.782,3.782,3.757,3.744,3.719,3.706,3.682,3.682,3.67,3.67,3.657,3.645,3.645,3.645,3.633,3.633,3.633,3.633,3.633,3.633,3.633,3.633,3.645,3.645,3.645,3.657,3.67,3.706,3.719,3.757,3.782,3.821,3.848,3.875,3.902,3.916,3.916,3.93,3.93,3.93,3.916,3.916,3.902,3.888,3.861,3.848,3.835,3.821,3.795,3.782,3.757,3.757,3.757,3.744,3.744,3.731,3.731,3.719,3.719,3.719,3.719,3.706,3.706,3.706,3.694,3.694,3.706,3.706,3.706,3.694,3.694,3.694,3.694,3.694,3.694,3.706,3.706,3.731,3.744,3.782,3.795,3.821,3.848,3.875,3.888,3.902,3.916,3.916,3.916,3.916,3.902,3.902,3.888,3.875,3.861,3.835,3.808,3.795,3.769,3.757,3.731,3.719,3.694,3.682,3.67,3.67,3.657,3.657,3.657,3.657,3.657,3.657,3.657,3.657,3.645,3.645,3.645,3.645,3.645,3.645,3.645,3.645,3.645,3.645,3.657,3.657,3.67,3.706,3.719,3.744,3.769,3.782,3.808,3.808,3.835,3.835,3.835,3.835,3.848,3.848,3.861,3.875,3.875,3.888,3.888,3.888,3.875,3.861,3.848,3.835,3.821,3.808,3.795,3.795,3.782,3.769,3.757,3.731,3.719,3.706,3.694,3.694,3.682,3.67,3.67,3.67,3.657,3.657,3.657,3.645,3.645,3.645,3.645,3.633,3.633,3.622,3.622,3.622,3.622,3.622,3.622,3.622,3.622,3.622,3.622,3.633,3.645,3.645,3.645,3.657,3.657,3.67,3.682,3.682,3.682,3.682,3.694,3.694,3.694,3.706,3.706,3.706,3.719,3.719,3.719,3.719,3.719,3.719,3.719,3.706,3.706,3.706,3.706,3.706,3.694,3.694,3.682,3.682,3.682,3.67,3.657,3.657,3.645,3.645,3.645,3.633,3.622,3.622,3.622,3.622,3.61,3.61,3.61,3.598,3.598,3.598,3.586,3.586,3.598,3.586,3.586,3.598,3.598,3.598,3.61,3.61,3.622,3.622,3.633,3.645,3.645,3.645,3.645,3.645,3.633,3.633,3.622,3.61,3.598,3.586,3.586,3.586,3.575,3.575,3.575,3.575,3.575,3.575,3.575,3.575,3.575,3.575,3.586,3.586,3.586,3.586,3.586,3.586,3.586,3.586,3.586,3.586,3.598,3.598,3.598,3.61,3.61,3.61,3.622,3.622,3.633,3.633,3.633,3.645,3.645,3.645,3.645,3.657,3.657,3.657,3.67,3.657,3.657,3.67,3.67,3.67,3.67,3.67,3.67,3.67,3.67,3.67,3.67,3.67,3.657,3.657,3.657,3.645,3.645,3.633,3.633,3.622,3.622,3.61,3.598,3.586,3.575,3.563,3.552,3.541,3.541,3.529,3.518,3.518,3.507,3.507,3.496,3.496,3.496,3.496,3.496,3.496,3.496,3.496,3.496,3.485,3.485,3.485,3.474,3.463,3.452,3.442,3.431,3.42,3.399,3.389,3.379,3.368,3.358,3.348,3.348,3.338,3.328,3.318,3.308,3.298,3.288,3.279,3.269,3.25,3.24,3.222,3.203,3.194,3.175,3.157,3.139,3.122,3.104,3.087,3.078,3.061,3.053,3.045,3.036,3.028,3.02,3.011,3.003,2.995,2.987,2.979,2.971,2.963,2.947,2.94,2.932,2.932,2.924,2.916,2.909,2.901,2.894,2.894,2.886,2.871,2.856,2.842,2.827,2.82,2.806,2.791,2.777,2.764,2.757,2.75,2.743,2.736,2.73,2.723,2.716,2.716,2.71,2.703,2.696,2.69,2.677,2.67,2.658,2.645,2.632,2.626,2.608,2.601,2.589,2.583,2.577,2.571,2.565,2.559,2.553,2.553,2.548,2.542,2.536,2.53,2.524,2.519,2.513,2.513,2.507,2.502,2.496,2.49,2.485,2.479,2.468,2.463,2.457,2.446,2.441,2.436,2.425,2.42,2.414,2.409,2.399,2.394,2.388,2.383,2.378,2.373,2.368,2.363,2.358,2.353,2.348,2.343,2.338,2.338,2.333
3.67,3.706,3.731,3.769,3.808,3.848,3.902,3.93,3.958,3.986,4.03,4.045,4.059,4.059,4.059,4.059,4.059,4.074,4.089,4.089,4.104,4.104,4.089,4.089,4.089,4.074,4.059,4.045,4.015,4.001,3.986,3.958,3.944,3.916,3.902,3.875,3.861,3.848,3.808,3.795,3.795,3.795,3.782,3.769,3.757,3.744,3.731,3.719,3.706,3.706,3.682,3.67,3.67,3.645,3.633,3.622,3.622,3.622,3.61,3.598,3.61,3.61,3.598,3.598,3.598,3.598,3.61,3.61,3.61,3.61,3.622,3.622,3.633,3.645,3.657,3.682,3.706,3.731,3.757,3.782,3.808,3.821,3.835,3.848,3.848,3.848,3.848,3.835,3.835,3.821,3.808,3.795,3.782,3.769,3.757,3.731,3.719,3.706,3.694,3.682,3.682,3.682,3.67,3.67,3.67,3.657,3.657,3.657,3.657,3.645,3.645,3.645,3.645,3.645,3.645,3.645,3.645,3.645,3.633,3.645,3.645,3.645,3.657,3.67,3.682,3.706,3.731,3.744,3.769,3.782,3.808,3.808,3.821,3.835,3.835,3.835,3.835,3.821,3.821,3.808,3.795,3.782,3.769,3.744,3.731,3.719,3.694,3.682,3.657,3.645,3.633,3.622,3.622,3.61,3.61,3.61,3.61,3.61,3.61,3.61,3.61,3.61,3.61,3.61,3.61,3.61,3.61,3.61,3.61,3.622,3.622,3.622,3.622,3.633,3.657,3.67,3.694,3.706,3.706,3.719,3.731,3.744,3.731,3.731,3.731,3.744,3.744,3.757,3.757,3.769,3.782,3.782,3.782,3.782,3.769,3.769,3.757,3.744,3.731,3.731,3.719,3.706,3.694,3.682,3.657,3.645,3.633,3.622,3.622,3.61,3.61,3.61,3.61,3.598,3.598,3.586,3.586,3.586,3.586,3.586,3.586,3.575,3.575,3.575,3.575,3.575,3.575,3.586,3.586,3.586,3.586,3.586,3.598,3.598,3.598,3.61,3.598,3.61,3.61,3.622,3.622,3.622,3.622,3.622,3.622,3.633,3.633,3.645,3.645,3.645,3.645,3.645,3.645,3.645,3.645,3.645,3.645,3.645,3.645,3.633,3.633,3.633,3.622,3.622,3.622,3.61,3.598,3.598,3.586,3.586,3.586,3.575,3.575,3.575,3.575,3.563,3.563,3.563,3.563,3.552,3.552,3.552,3.552,3.552,3.552,3.552,3.552,3.552,3.563,3.563,3.563,3.575,3.575,3.586,3.586,3.598,3.61,3.61,3.61,3.61,3.61,3.61,3.598,3.586,3.586,3.575,3.563,3.563,3.552,3.552,3.552,3.552,3.552,3.552,3.552,3.552,3.552,3.552,3.563,3.563,3.563,3.563,3.563,3.575,3.575,3.575,3.575,3.575,3.586,3.586,3.586,3.586,3.598,3.598,3.598,3.598,3.61,3.61,3.622,3.622,3.622,3.633,3.633,3.633,3.645,3.645,3.657,3.657,3.657,3.657,3.657,3.67,3.67,3.67,3.67,3.657,3.657,3.657,3.657,3.657,3.645,3.645,3.645,3.633,3.633,3.633,3.622,3.61,3.61,3.598,3.598,3.586,3.575,3.563,3.552,3.541,3.541,3.529,3.518,3.507,3.507,3.496,3.496,3.496,3.485,3.485,3.485,3.485,3.485,3.485,3.485,3.485,3.474,3.474,3.474,3.463,3.463,3.452,3.442,3.431,3.42,3.399,3.389,3.379,3.368,3.358,3.358,3.348,3.338,3.328,3.318,3.308,3.298,3.288,3.279,3.269,3.25,3.24,3.222,3.203,3.185,3.175,3.157,3.139,3.122,3.104,3.087,3.07,3.061,3.053,3.045,3.036,3.028,3.02,3.011,3.003,2.995,2.987,2.987,2.971,2.963,2.955,2.947,2.94,2.932,2.924,2.916,2.909,2.901,2.901,2.886,2.878,2.871,2.856,2.842,2.827,2.82,2.806,2.791,2.777,2.764,2.757,2.75,2.743,2.743,2.736,2.73,2.723,2.716,2.716,2.703,2.696,2.69,2.683,2.67,2.658,2.651,2.632,2.62,2.614,2.601,2.589,2.583,2.571,2.571,2.565,2.559,2.553,2.548,2.548,2.536,2.53,2.53,2.524,2.519,2.513,2.507,2.502,2.496,2.49,2.485,2.479,2.474,2.468,2.463,2.452,2.446,2.441,2.43,2.425,2.42,2.409,2.404,2.399,2.394,2.388,2.383,2.378,2.373,2.368,2.363,2.358,2.353,2.348,2.343,2.338,2.338,2.333
3.633,3.657,3.682,3.719,3.744,3.795,3.835,3.875,3.902,3.916,3.958,3.972,3.986,3.986,3.986,3.986,3.986,4.001,4.015,4.015,4.015,4.015,4.015,4.015,4.001,3.986,3.972,3.958,3.944,3.916,3.902,3.875,3.861,3.835,3.821,3.808,3.782,3.769,3.744,3.731,3.731,3.719,3.719,3.706,3.694,3.694,3.682,3.67,3.657,3.645,3.645,3.622,3.622,3.598,3.586,3.586,3.575,3.575,3.575,3.563,3.563,3.563,3.563,3.563,3.563,3.563,3.575,3.586,3.586,3.586,3.586,3.586,3.598,3.61,3.622,3.633,3.657,3.67,3.694,3.719,3.731,3.757,3.757,3.769,3.769,3.769,3.769,3.769,3.757,3.744,3.731,3.719,3.719,3.694,3.682,3.657,3.645,3.633,3.633,3.622,3.622,3.622,3.61,3.61,3.598,3.598,3.598,3.598,3.598,3.586,3.586,3.586,3.586,3.598,3.598,3.598,3.598,3.598,3.598,3.598,3.61,3.61,3.622,3.622,3.633,3.657,3.67,3.694,3.706,3.719,3.731,3.731,3.744,3.757,3.757,3.757,3.757,3.744,3.744,3.731,3.719,3.706,3.694,3.682,3.67,3.657,3.633,3.622,3.61,3.598,3.586,3.575,3.575,3.563,3.563,3.575,3.575,3.575,3.575,3.575,3.575,3.575,3.575,3.575,3.575,3.575,3.575,3.575,3.575,3.586,3.586,3.586,3.598,3.598,3.622,3.633,3.633,3.645,3.645,3.645,3.645,3.645,3.645,3.633,3.633,3.633,3.645,3.657,3.657,3.67,3.682,3.694,3.694,3.682,3.682,3.67,3.67,3.67,3.657,3.645,3.633,3.633,3.622,3.61,3.586,3.575,3.563,3.552,3.552,3.541,3.541,3.541,3.541,3.541,3.541,3.541,3.529,3.529,3.529,3.529,3.529,3.529,3.529,3.529,3.529,3.529,3.529,3.541,3.541,3.541,3.552,3.552,3.563,3.563,3.563,3.563,3.563,3.563,3.563,3.563,3.575,3.575,3.575,3.575,3.586,3.598,3.598,3.598,3.598,3.61,3.61,3.61,3.61,3.61,3.61,3.61,3.61,3.61,3.598,3.598,3.598,3.586,3.586,3.575,3.575,3.575,3.563,3.552,3.552,3.552,3.541,3.541,3.541,3.541,3.541,3.541,3.541,3.541,3.541,3.541,3.529,3.529,3.529,3.529,3.529,3.529,3.529,3.529,3.529,3.541,3.541,3.552,3.552,3.563,3.575,3.586,3.586,3.598,3.598,3.598,3.586,3.586,3.575,3.575,3.563,3.552,3.552,3.541,3.541,3.529,3.529,3.541,3.529,3.529,3.529,3.541,3.541,3.541,3.541,3.552,3.552,3.552,3.552,3.552,3.563,3.563,3.563,3.563,3.563,3.575,3.575,3.575,3.586,3.586,3.586,3.586,3.586,3.598,3.598,3.61,3.61,3.61,3.622,3.622,3.622,3.633,3.645,3.645,3.645,3.645,3.657,3.657,3.657,3.657,3.657,3.645,3.645,3.645,3.633,3.633,3.622,3.622,3.622,3.622,3.622,3.61,3.61,3.598,3.598,3.586,3.586,3.575,3.563,3.552,3.541,3.529,3.529,3.518,3.507,3.496,3.496,3.485,3.485,3.485,3.474,3.474,3.474,3.474,3.474,3.474,3.474,3.474,3.474,3.474,3.463,3.463,3.452,3.442,3.431,3.431,3.42,3.399,3.389,3.379,3.368,3.358,3.358,3.348,3.338,3.328,3.318,3.308,3.298,3.288,3.279,3.269,3.25,3.24,3.222,3.203,3.194,3.175,3.157,3.139,3.122,3.104,3.087,3.078,3.061,3.053,3.045,3.036,3.028,3.02,3.011,3.003,3.003,2.995,2.987,2.979,2.963,2.955,2.955,2.947,2.94,2.932,2.924,2.916,2.909,2.901,2.886,2.878,2.871,2.856,2.842,2.827,2.82,2.806,2.791,2.784,2.771,2.764,2.75,2.75,2.743,2.736,2.73,2.73,2.723,2.716,2.71,2.703,2.696,2.69,2.677,2.664,2.651,2.639,2.626,2.614,2.601,2.589,2.583,2.577,2.571,2.565,2.559,2.553,2.548,2.542,2.536,2.53,2.524,2.519,2.513,2.507,2.502,2.496,2.49,2.485,2.479,2.474,2.468,2.463,2.457,2.452,2.446,2.436,2.43,2.425,2.414,2.409,2.404,2.399,2.394,2.383,2.378,2.378,2.373,2.368,2.363,2.358,2.353,2.348,2.343,2.338,2.333,2.328
3.598,3.622,3.633,3.657,3.694,3.731,3.769,3.795,3.821,3.848,3.875,3.888,3.902,3.902,3.916,3.916,3.916,3.93,3.93,3.93,3.93,3.93,3.93,3.93,3.916,3.902,3.888,3.875,3.861,3.835,3.821,3.795,3.782,3.769,3.757,3.731,3.719,3.706,3.682,3.67,3.67,3.657,3.657,3.645,3.633,3.622,3.622,3.61,3.598,3.598,3.586,3.575,3.575,3.552,3.541,3.541,3.541,3.529,3.529,3.529,3.529,3.529,3.529,3.529,3.529,3.529,3.541,3.552,3.552,3.552,3.552,3.552,3.563,3.563,3.575,3.586,3.598,3.622,3.633,3.645,3.67,3.67,3.682,3.682,3.682,3.682,3.682,3.682,3.67,3.67,3.657,3.645,3.633,3.622,3.61,3.586,3.586,3.575,3.563,3.563,3.563,3.552,3.552,3.552,3.541,3.541,3.541,3.529,3.529,3.529,3.529,3.529,3.529,3.541,3.541,3.541,3.541,3.541,3.552,3.552,3.563,3.563,3.575,3.586,3.586,3.598,3.622,3.633,3.645,3.645,3.657,3.657,3.67,3.67,3.682,3.682,3.67,3.67,3.657,3.657,3.657,3.645,3.633,3.61,3.598,3.586,3.575,3.563,3.552,3.541,3.541,3.529,3.529,3.518,3.529,3.529,3.529,3.529,3.529,3.529,3.529,3.541,3.541,3.541,3.541,3.552,3.552,3.552,3.552,3.552,3.563,3.563,3.563,3.563,3.575,3.586,3.586,3.586,3.586,3.575,3.563,3.563,3.563,3.552,3.552,3.552,3.552,3.563,3.563,3.575,3.586,3.598,3.598,3.598,3.598,3.598,3.598,3.586,3.586,3.575,3.575,3.563,3.552,3.552,3.541,3.529,3.518,3.518,3.518,3.507,3.507,3.507,3.518,3.518,3.518,3.518,3.518,3.518,3.518,3.507,3.507,3.507,3.507,3.507,3.507,3.507,3.507,3.507,3.518,3.518,3.529,3.541,3.541,3.541,3.552,3.552,3.552,3.541,3.541,3.552,3.552,3.552,3.563,3.563,3.563,3.563,3.575,3.575,3.575,3.586,3.586,3.586,3.586,3.586,3.586,3.586,3.586,3.586,3.586,3.575,3.575,3.575,3.575,3.563,3.563,3.563,3.552,3.552,3.541,3.541,3.529,3.529,3.529,3.529,3.529,3.518,3.518,3.518,3.518,3.518,3.518,3.518,3.518,3.518,3.518,3.518,3.507,3.507,3.518,3.529,3.529,3.541,3.552,3.552,3.563,3.575,3.586,3.586,3.586,3.586,3.586,3.575,3.563,3.563,3.552,3.541,3.529,3.518,3.518,3.518,3.518,3.518,3.518,3.518,3.518,3.518,3.518,3.518,3.529,3.529,3.529,3.529,3.541,3.541,3.552,3.552,3.552,3.552,3.563,3.563,3.563,3.563,3.563,3.563,3.575,3.575,3.575,3.575,3.575,3.586,3.586,3.598,3.598,3.598,3.61,3.622,3.633,3.633,3.633,3.645,3.633,3.645,3.645,3.645,3.645,3.633,3.633,3.633,3.622,3.622,3.61,3.61,3.61,3.61,3.598,3.598,3.586,3.586,3.575,3.575,3.575,3.563,3.552,3.541,3.529,3.518,3.507,3.507,3.496,3.485,3.485,3.474,3.474,3.474,3.463,3.463,3.463,3.463,3.463,3.463,3.463,3.463,3.463,3.463,3.452,3.452,3.442,3.442,3.431,3.42,3.41,3.399,3.389,3.379,3.379,3.368,3.358,3.348,3.338,3.328,3.318,3.308,3.298,3.288,3.279,3.269,3.259,3.24,3.222,3.203,3.194,3.175,3.157,3.139,3.122,3.104,3.087,3.078,3.061,3.053,3.045,3.036,3.028,3.02,3.02,3.011,3.003,2.995,2.987,2.979,2.971,2.963,2.955,2.947,2.94,2.94,2.932,2.916,2.909,2.901,2.886,2.878,2.864,2.856,2.842,2.827,2.82,2.806,2.791,2.784,2.771,2.764,2.757,2.75,2.743,2.736,2.736,2.73,2.73,2.723,2.716,2.71,2.703,2.69,2.683,2.67,2.651,2.639,2.626,2.614,2.601,2.589,2.583,2.577,2.571,2.565,2.559,2.553,2.548,2.542,2.536,2.53,2.524,2.519,2.513,2.507,2.502,2.496,2.49,2.479,2.479,2.474,2.468,2.463,2.457,2.452,2.441,2.436,2.43,2.425,2.414,2.409,2.404,2.399,2.388,2.383,2.378,2.373,2.368,2.368,2.358,2.353,2.348,2.343,2.338,2.333,2.333,2.328
