0,0,0,0,0,0,0,0,0,0,0,0,0,0,0,0.613,0.613,0.613,0.613,0.612,0.612,0,0,0,0,0,0,0.574,0.571,0,0.567,0.566,0.564,0.563,0.562,0.561,0.559,0.558,0.557,0.556,0.555,0.554,0.553,0.552,0.552,0.551,0.551,0.55,0.549,0.549,0.548,0.548,0.548,0.547,0.547,0.547,0.546,0.546,0.546,0.545,0.545,0.544,0.544,0.543,0.542,0.542,0.541,0.54,0.539,0.538,0.538,0.538,0.537,0.537,0.536,0.535,0.534,0.534,0.533,0.532,0.531,0.53,0.53,0.53,0.53,0.53,0.53,0.53,0.53,0.531,0.531,0.532,0.532,0.533,0.533,0.534,0.534,0.535,0.535,0.535,0.536,0.536,0.536,0.536,0.537,0.537,0.537,0.538,0.538,0.538,0.539,0.54,0.541,0.542,0.544,0.546,0.549,0.551,0.554,0.557,0.56,0.562,0.564,0.566,0.567,0.568,0.568,0.569,0.569,0.569,0.569,0.569,0.569,0.569,0.569,0.569,0.57,0.57,0.571,0.571,0.571,0.571,0.571,0.571,0.572,0.572,0.572,0.572,0.572,0.572,0.572,0.572,0.572,0.572,0.571,0.571,0.57,0.57,0.57,0.57,0.57,0.57,0.57,0.57,0.57,0.571,0.571,0.571,0.571,0.572,0.572,0.572,0.572,0.573,0.574,0.575,0.576,0.576,0.577,0.578,0.579,0.58,0.581,0.581,0.581,0.582,0.582,0.582,0.583,0.583,0.582,0.582,0.581,0.58,0.579,0.577,0.576,0.575,0.573,0.573,0.574,0.575,0,0,0.581,0.584,0.585,0.586,0.586,0.586,0.586,0.586,0.586,0.586,0.585,0.585,0.585,0.584,0.585,0.584,0.585,0.584,0.584,0.584,0.585,0.585,0.585,0.585,0.584,0.584,0.584,0.584,0.583,0.583,0.582,0.582,0.583,0.583,0.584,0.585,0.586,0.588,0.589,0.59,0.591,0.593,0.595,0,0,0,0.609,0.611,0.613,0.613,0.614,0.615,0.616,0.617,0.618,0.618,0.619,0.62,0.621,0.622,0.623,0.625,0.626,0.627,0.629,0.63,0.631,0.631,0.633,0.633,0.633,0.634,0.634,0.634,0.633,0.633,0.632,0.632,0.631,0.63,0.63,0.629,0.629,0.628,0,0,0,0,0,0,0,0,0.765,0.766,0.767,0.768,0.768,0.769,0.769,0.77,0.771,0.772,0.773,0.774,0.776,0.777,0.778,0.779,0.78,0.78,0.782,0.782,0.783,0.784,0.785,0.786,0.787,0.788,0.789,0.79,0.792,0.793,0.795,0.797,0.799,0.801,0.802,0.804,0.805,0.807,0.808,0.81,0.81,0.811,0.812,0.814,0.815,0.815,0.816,0.817,0.818,0.819,0.82,0.821,0.822,0.822,0.823,0.824,0.825,0.825,0.826,0.826,0.826,0.828,0.829,0.83,0.831,0.831,0.832,0.833,0.834,0.834,0.835,0.836,0.837,0.838,0.839,0.84,0.84,0.84,0.84,0.84,0.84,0.84,0.839,0.838,0.837,0.836,0.837,0.837,0.838,0.838,0.84,0.841,0.842,0.845,0.846,0.847,0.848,0.849,0.851,0.852,0.854,0.856,0.858,0.86,0.862,0.864,0.864,0.866,0.866,0.866,0.866,0.866,0,0,0,0.867,0.868,0.868,0.869,0.869,0.869,0.87,0.87,0.871,0.871,0.871,0.871,0.871,0.871,0.872,0.872,0.872,0.872,0.872,0.872,0.872,0.872,0.871,0.871,0.871,0,0,0,0,0,0,0,0.858,0,0.857,0.857,0.857,0.857,0.857,0.857,0.857,0.857,0.857,0.857,0,0,0,0,0,0,1.138,1.138,1.138,1.138,1.139,1.14,1.141,1.142,1.145,1.146,1.151,1.154,1.157,1.157,1.157,1.156,1.157,1.157,1.157,1.157,1.157,1.157,1.157,1.157,1.156,1.156,1.156,1.154,1.154,1.156,1.157,1.158,1.158,1.159,1.159,1.158,1.158,1.157,1.157,1.157,1.158,1.159,1.162,1.163,1.164,1.165,1.167,1.167,1.167,1.165,1.164,1.164,1.164,1.165,1.167,1.168,1.168,1.169,1.171,1.171,1.171,1.171,1.171,1.171,1.171,1.171,1.173,1.174,1.175,1.176,1.179,1.18,1.181,1.181,1.181,1.181,1.183,1.181,1.18,1.179
0,0,0,0,0,0,0,0,0,0,0,0,0,0,0,0.614,0.614,0.614,0.614,0.614,0.614,0,0,0,0,0,0,0,0,0,0.569,0.567,0.565,0.563,0.563,0.561,0.56,0.559,0.557,0.556,0.555,0.554,0.554,0.553,0.552,0.552,0.551,0.55,0.55,0.549,0.549,0.549,0.548,0.548,0.548,0.547,0.547,0.546,0.546,0.546,0.545,0.545,0.544,0.543,0.542,0.541,0.541,0.54,0.539,0.538,0.538,0.537,0.537,0.536,0.535,0.535,0.534,0.533,0.533,0.532,0.53,0.53,0.53,0.53,0.53,0.53,0.53,0.53,0.53,0.531,0.532,0.532,0.533,0.533,0.534,0.534,0.535,0.535,0.535,0.536,0.536,0.536,0.536,0.537,0.537,0.537,0.538,0.538,0.539,0.539,0.54,0.541,0.542,0.543,0.545,0.547,0.549,0.552,0.555,0.558,0.561,0.563,0.565,0.566,0.568,0.569,0.569,0.569,0.569,0.569,0.569,0.569,0.57,0.569,0.569,0.57,0.57,0.571,0.571,0.571,0.572,0.572,0.572,0.572,0.572,0.572,0.572,0.572,0.572,0.572,0.572,0.572,0.572,0.572,0.571,0.571,0.571,0.57,0.57,0.57,0.57,0.57,0.57,0.571,0.571,0.571,0.571,0.571,0.571,0.572,0.572,0.572,0.573,0.573,0.574,0.575,0.576,0.576,0.577,0.578,0.579,0.58,0.58,0.581,0.581,0.581,0.582,0.582,0.582,0.582,0.581,0.581,0.581,0.579,0.579,0.577,0.576,0.575,0.575,0.575,0.575,0.576,0.578,0.58,0.582,0.584,0.585,0.586,0.586,0.586,0.587,0.587,0.586,0.586,0.586,0.585,0.585,0.585,0.585,0.585,0.585,0.585,0.585,0.585,0.585,0.586,0.586,0.585,0.585,0.585,0.585,0.584,0.584,0.583,0.583,0.583,0.584,0.584,0.585,0.586,0.587,0.588,0.589,0.591,0.592,0.594,0,0,0,0,0,0.61,0.612,0.613,0.613,0.614,0.615,0.616,0.617,0.618,0.619,0.62,0.621,0.623,0.624,0.626,0.627,0.628,0.629,0.631,0.632,0.633,0.634,0.634,0.634,0.635,0.635,0.635,0.634,0.634,0.633,0.633,0.632,0.631,0.631,0.63,0.63,0,0,0,0,0,0,0.764,0.765,0,0,0.766,0.767,0.767,0.767,0.769,0.769,0.77,0.771,0.772,0.773,0.774,0.776,0.778,0.779,0.78,0.781,0.782,0.783,0.784,0.784,0.785,0.786,0.787,0.788,0.789,0.791,0.792,0.794,0.796,0.797,0.799,0.801,0.804,0.805,0.807,0.808,0.81,0.811,0.811,0.812,0.813,0.814,0.815,0.817,0.818,0.819,0.82,0.82,0.822,0.823,0.823,0.824,0.825,0.826,0.826,0.828,0.829,0.829,0.83,0.83,0.831,0.833,0.833,0.834,0.834,0.836,0.836,0.838,0.838,0.839,0.84,0.841,0.842,0.843,0.843,0.844,0.845,0.844,0.844,0.844,0.844,0.843,0.842,0.841,0.84,0.84,0.841,0.841,0.842,0.843,0.844,0.846,0.849,0.85,0.851,0.852,0.853,0.854,0.856,0.858,0.86,0.862,0.864,0.866,0.867,0.868,0.869,0.869,0.869,0.87,0,0,0,0,0.871,0.871,0.872,0.871,0.872,0.872,0.873,0.873,0.873,0.873,0.874,0.874,0.874,0.875,0.875,0.875,0.875,0.875,0.875,0.874,0.874,0.873,0.872,0.871,0.87,0,0,0,0,0,0,0,0.856,0.856,0,0,0.856,0.856,0.856,0.857,0.856,0.857,0.857,0,0,0,0,0,0,0,0,1.138,1.137,1.137,1.138,1.138,1.138,1.14,1.142,1.145,1.148,0,1.156,1.157,1.156,1.154,1.154,1.156,1.157,1.156,1.156,1.156,1.154,1.156,1.156,1.156,1.154,1.154,1.153,1.153,1.154,1.156,1.157,1.157,1.157,1.157,1.156,1.156,1.156,1.154,1.156,1.157,1.158,1.158,1.16,1.162,1.163,1.163,1.162,1.16,1.16,1.16,1.162,1.162,1.163,1.164,1.165,1.167,1.169,1.17,1.17,1.17,1.169,1.169,1.169,1.17,1.171,1.171,1.173,1.174,1.176,1.178,1.178,1.179,1.179,1.18,1.18,1.179,1.178,1.178
0,0,0,0,0,0,0,0,0,0,0,0,0,0,0,0,0.615,0.614,0.614,0.614,0.614,0.613,0,0,0,0,0,0,0,0,0,0.568,0.566,0.564,0.563,0.562,0.561,0.559,0.558,0.557,0.556,0.555,0.554,0.553,0.553,0.552,0.552,0.551,0.551,0.55,0.549,0.549,0.549,0.548,0.548,0.548,0.547,0.547,0.546,0.546,0.545,0.545,0.544,0.544,0.543,0.542,0.541,0.54,0.539,0.538,0.538,0.537,0.537,0.536,0.535,0.534,0.534,0.533,0.532,0.532,0.53,0.53,0.53,0.53,0.53,0.53,0.53,0.531,0.531,0.532,0.532,0.533,0.533,0.534,0.534,0.534,0.535,0.535,0.536,0.536,0.536,0.537,0.537,0.537,0.538,0.538,0.538,0.539,0.54,0.54,0.541,0.541,0.543,0.544,0.546,0.548,0.55,0.552,0.555,0.558,0.561,0.563,0.565,0.567,0.568,0.569,0.57,0.57,0.571,0.57,0.57,0.57,0.57,0.57,0.57,0.57,0.57,0.571,0.571,0.572,0.572,0.572,0.572,0.572,0.572,0.572,0.572,0.573,0.573,0.573,0.573,0.573,0.572,0.572,0.572,0.571,0.571,0.571,0.57,0.571,0.571,0.571,0.571,0.571,0.571,0.571,0.571,0.572,0.572,0.572,0.572,0.572,0.573,0.573,0.574,0.575,0.576,0.576,0.577,0.578,0.579,0.579,0.58,0.58,0.581,0.581,0.581,0.581,0.581,0.581,0.581,0.58,0.58,0.579,0.578,0.577,0.576,0.576,0.576,0.576,0.577,0.578,0.58,0.581,0.583,0.584,0.585,0.585,0.586,0.586,0.587,0.587,0.587,0.587,0.586,0.586,0.586,0.586,0.586,0.586,0.586,0.586,0.586,0.586,0.586,0.587,0.587,0.586,0.586,0.585,0.585,0.585,0.585,0.584,0.584,0.584,0.584,0.585,0.586,0.587,0.588,0.589,0.589,0.591,0.593,0.595,0,0,0,0,0,0.611,0.612,0.613,0.613,0.614,0.615,0.616,0.617,0.618,0.619,0.621,0.622,0.624,0.625,0.626,0.628,0.629,0.63,0.631,0.633,0.634,0.634,0.635,0.635,0.635,0.636,0.635,0.635,0.635,0.634,0.633,0.633,0.633,0.632,0.631,0,0,0,0,0,0,0.763,0.764,0.764,0.764,0,0.766,0.766,0.767,0.768,0.769,0.77,0.77,0.771,0.773,0.774,0.776,0.777,0.778,0.78,0.781,0.782,0.783,0.784,0.785,0.785,0.787,0.787,0.788,0.789,0.79,0.792,0.794,0.796,0.797,0.799,0.801,0.803,0.805,0.807,0.809,0.811,0.812,0.813,0.814,0.814,0.815,0.817,0.818,0.819,0.82,0.822,0.822,0.823,0.824,0.825,0.825,0.826,0.826,0.828,0.829,0.83,0.831,0.832,0.833,0.833,0.834,0.835,0.836,0.837,0.838,0.84,0.84,0.841,0.842,0.843,0.844,0.845,0.845,0.846,0.847,0.847,0.848,0.848,0.848,0.848,0.847,0.847,0.845,0.845,0.844,0.844,0.845,0.845,0.846,0.847,0.849,0.851,0.852,0.854,0.855,0.856,0.857,0.858,0.86,0.862,0.864,0.866,0.867,0.869,0.871,0.871,0.872,0.872,0.873,0.873,0.873,0.873,0.874,0.874,0.874,0.875,0.875,0.875,0.875,0.875,0.876,0.877,0.877,0.877,0.877,0.878,0.877,0.878,0.879,0.88,0.88,0.88,0.88,0,0,0,0.877,0.875,0.873,0,0,0,0,0,0.858,0,0.855,0.855,0.855,0.856,0.855,0.854,0.854,0,0.856,0,0,0,0,0,0,0,0,0,0,0,1.135,1.134,1.135,1.135,1.135,0,0,1.142,0,0,1.153,1.156,1.156,1.153,1.153,1.154,1.154,1.154,1.154,1.154,1.154,1.154,1.154,1.153,1.153,1.152,1.152,1.151,1.152,1.153,1.153,1.153,1.154,1.154,1.153,1.153,1.153,1.152,1.152,1.153,1.154,1.154,1.156,1.157,1.157,1.157,1.157,1.157,1.156,1.156,1.157,1.158,1.159,1.16,1.163,1.164,1.167,1.168,1.168,1.168,1.167,1.167,1.168,1.168,1.169,1.17,1.171,1.173,1.174,1.175,1.176,1.176,1.176,1.176,1.176,1.176,1.175,1.175
0,0,0,0,0,0,0,0,0,0,0,0,0,0,0,0,0,0.614,0.614,0.614,0.613,0.613,0,0,0,0.592,0,0,0.577,0.574,0.571,0.569,0.567,0.565,0.564,0.563,0.562,0.56,0.559,0.558,0.557,0.556,0.555,0.554,0.554,0.553,0.552,0.552,0.551,0.551,0.55,0.549,0.549,0.548,0.548,0.548,0.547,0.547,0.546,0.546,0.545,0.545,0.544,0.544,0.543,0.542,0.541,0.54,0.539,0.539,0.538,0.537,0.537,0.536,0.535,0.535,0.534,0.533,0.533,0.532,0.531,0.531,0.531,0.531,0.531,0.531,0.531,0.532,0.532,0.532,0.533,0.533,0.534,0.534,0.534,0.535,0.535,0.536,0.536,0.536,0.537,0.537,0.537,0.538,0.538,0.539,0.54,0.54,0.541,0.541,0.542,0.543,0.544,0.545,0.547,0.549,0.551,0.553,0.555,0.558,0.561,0.563,0.565,0.567,0.568,0.569,0.57,0.571,0.571,0.571,0.571,0.571,0.571,0.571,0.571,0.571,0.57,0.571,0.571,0.572,0.572,0.572,0.572,0.572,0.573,0.573,0.573,0.573,0.573,0.573,0.573,0.573,0.572,0.572,0.572,0.571,0.571,0.571,0.571,0.571,0.571,0.571,0.571,0.571,0.571,0.571,0.571,0.571,0.572,0.572,0.572,0.572,0.573,0.573,0.574,0.575,0.576,0.576,0.577,0.578,0.578,0.579,0.58,0.58,0.581,0.581,0.581,0.581,0.581,0.581,0.581,0.58,0.58,0.579,0.578,0.577,0.577,0.576,0.576,0.577,0.578,0.579,0.581,0.582,0.583,0.585,0.585,0.586,0.586,0.586,0.587,0.587,0.587,0.587,0.587,0.587,0.587,0.587,0.587,0.587,0.587,0.587,0.587,0.587,0.587,0.587,0.587,0.587,0.586,0.586,0.586,0.586,0.585,0.585,0.585,0.585,0.585,0.585,0.586,0.587,0.588,0.589,0.59,0.592,0.593,0.595,0.597,0.601,0.604,0.607,0.61,0.611,0.612,0.613,0.613,0.614,0.615,0.616,0.617,0.619,0.62,0.621,0.623,0.624,0.626,0.628,0.629,0.63,0.631,0.632,0.633,0.634,0.634,0.635,0.636,0.636,0.636,0.636,0.636,0.635,0.635,0.635,0.634,0.634,0.634,0,0,0,0,0,0,0,0,0,0,0,0.765,0.766,0.766,0.767,0.768,0.769,0.77,0.771,0.773,0.774,0.775,0.777,0.778,0.779,0.781,0.782,0.783,0.784,0.785,0.786,0.787,0.788,0.788,0.789,0.79,0.792,0.793,0.795,0.797,0.799,0.801,0.803,0.805,0.808,0.81,0.811,0.813,0.814,0.815,0.816,0.817,0.818,0.818,0.82,0.821,0.822,0.823,0.824,0.825,0.826,0.826,0.827,0.828,0.829,0.83,0.831,0.833,0.834,0.834,0.835,0.836,0.838,0.838,0.839,0.84,0.841,0.842,0.843,0.845,0.846,0.847,0.848,0.849,0.849,0.851,0.851,0.851,0.852,0.852,0.852,0.851,0.851,0.851,0.849,0.848,0.848,0.848,0.849,0.85,0.851,0.852,0.853,0.855,0.857,0.858,0.859,0.86,0.862,0.863,0.864,0.866,0.868,0.87,0.871,0.873,0.874,0.875,0.875,0.875,0.877,0.877,0.877,0.877,0.877,0.878,0.879,0.88,0.879,0.879,0.879,0.879,0.88,0.88,0,0,0.881,0.882,0.882,0.882,0.882,0.883,0.884,0.884,0.885,0.884,0,0.885,0.884,0.882,0.878,0.875,0.871,0.868,0.864,0.859,0.858,0.856,0.855,0.854,0.854,0.854,0.854,0,0,0,0,0,0,0,0,0,0,0,0,0,1.133,1.133,1.133,1.133,1.133,1.134,1.134,1.137,0,0,0,1.15,1.153,1.156,1.154,1.152,1.152,1.153,1.153,1.153,1.153,1.153,1.153,1.154,1.152,1.153,1.152,1.151,1.15,1.148,1.15,1.15,1.15,1.15,1.15,1.15,1.151,1.151,1.151,1.148,1.15,1.151,1.151,1.152,1.152,1.153,1.153,1.153,1.152,1.152,1.151,1.152,1.153,1.154,1.156,1.157,1.159,1.16,1.163,1.164,1.164,1.164,1.164,1.164,1.165,1.165,1.165,1.167,1.168,1.17,1.171,1.173,1.174,1.174,1.173,1.173,1.174,1.174,1.173,1.173
0,0,0,0,0,0,0,0,0,0,0,0,0,0,0,0,0,0,0.614,0.613,0.612,0.611,0,0,0,0,0,0.584,0,0.575,0.573,0.57,0.568,0.566,0.565,0.564,0.563,0.561,0.56,0.559,0.558,0.557,0.556,0.555,0.555,0.554,0.553,0.553,0.552,0.551,0.551,0.55,0.549,0.549,0.548,0.548,0.547,0.547,0.546,0.546,0.545,0.545,0.544,0.543,0.542,0.542,0.541,0.54,0.54,0.539,0.538,0.538,0.537,0.537,0.536,0.535,0.535,0.534,0.534,0.533,0.533,0.532,0.532,0.532,0.532,0.533,0.532,0.533,0.533,0.533,0.534,0.534,0.534,0.535,0.535,0.535,0.536,0.536,0.536,0.537,0.537,0.538,0.538,0.539,0.539,0.54,0.541,0.541,0.542,0.542,0.543,0.544,0.546,0.547,0.548,0.55,0.551,0.554,0.556,0.558,0.56,0.563,0.564,0.567,0.568,0.57,0.571,0.572,0.572,0.572,0.572,0.572,0.572,0.572,0.571,0.571,0.571,0.571,0.571,0.572,0.572,0.572,0.572,0.572,0.572,0.573,0.573,0.573,0.573,0.573,0.573,0.573,0.572,0.572,0.572,0.571,0.571,0.571,0.571,0.571,0.571,0.571,0.571,0.571,0.572,0.571,0.571,0.572,0.572,0.572,0.572,0.572,0.573,0.574,0.574,0.575,0.575,0.576,0.577,0.577,0.579,0.579,0.58,0.58,0.581,0.581,0.581,0.581,0.581,0.581,0.581,0.581,0.58,0.579,0.578,0.578,0.577,0.577,0.577,0.577,0.579,0.58,0.582,0.583,0.584,0.585,0.586,0.586,0.586,0.587,0.587,0.588,0.588,0.588,0.588,0.588,0.588,0.588,0.588,0.588,0.588,0.588,0.588,0.588,0.588,0.589,0.588,0.588,0.588,0.587,0.587,0.586,0.586,0.586,0.585,0.585,0.586,0.586,0.587,0.588,0.589,0.589,0.59,0.592,0.594,0.596,0.598,0,0,0.608,0.61,0.612,0.613,0.614,0.614,0.614,0.615,0.616,0.618,0.619,0.62,0.622,0.624,0.626,0.627,0.629,0.631,0.632,0.633,0.634,0.634,0.635,0.635,0.636,0.636,0.637,0.637,0.637,0.637,0.637,0.637,0.636,0.636,0.635,0,0,0,0,0,0,0,0,0,0,0,0,0.765,0.766,0.767,0.768,0.769,0.77,0.771,0.772,0.773,0.775,0.776,0.778,0.779,0.78,0.782,0.783,0.784,0.785,0.786,0.787,0.788,0.789,0.789,0.79,0.791,0.793,0.794,0.796,0.798,0.8,0.802,0.805,0.808,0.81,0.812,0.814,0.815,0.817,0.817,0.818,0.819,0.82,0.821,0.822,0.823,0.824,0.825,0.826,0.826,0.827,0.828,0.828,0.83,0.83,0.831,0.833,0.834,0.836,0.837,0.838,0.839,0.84,0.841,0.842,0.843,0.843,0.845,0.847,0.848,0.849,0.851,0.851,0.852,0.853,0.854,0.854,0.854,0.855,0.855,0.855,0.855,0.855,0.854,0.853,0.852,0.852,0.852,0.853,0.854,0.855,0.856,0.858,0.86,0.862,0.863,0.863,0.864,0.866,0.866,0.869,0.871,0.871,0.873,0.875,0.877,0.877,0.878,0.88,0.88,0.88,0.881,0.881,0.882,0.882,0.883,0.884,0.883,0.884,0.883,0.883,0.882,0.884,0.884,0.884,0.885,0.884,0.885,0.886,0.886,0.885,0.887,0.887,0.889,0.889,0,0,0,0,0.892,0.887,0.882,0.875,0.872,0.868,0.859,0.858,0.856,0.855,0.854,0.854,0.854,0,0,0.852,0,0,0,0,0,0,0,0,0,0,0,0,0,0,1.131,0,0,0,0,0,0,0,0,0,0,0,1.151,0,0,1.152,1.152,1.152,1.152,1.151,1.151,1.151,1.151,1.15,1.148,1.146,1.146,1.146,1.147,1.146,1.146,1.147,1.147,1.147,1.147,1.146,1.145,1.146,1.146,1.146,1.147,1.147,1.147,1.148,1.148,1.147,1.147,1.147,1.147,1.15,1.15,1.151,1.153,1.156,1.157,1.159,1.16,1.16,1.16,1.162,1.16,1.16,1.162,1.162,1.163,1.164,1.167,1.168,1.169,1.169,1.17,1.17,1.17,1.17,1.17,1.17,1.17
0,0,0,0,0,0,0,0,0,0,0,0,0,0,0,0,0,0,0.613,0.613,0.611,0.61,0,0,0,0,0.589,0.586,0.582,0.578,0.575,0.572,0.569,0.567,0.566,0.565,0.564,0.563,0.562,0.56,0.559,0.558,0.557,0.557,0.556,0.555,0.554,0.553,0.552,0.551,0.551,0.55,0.549,0.548,0.548,0.547,0.546,0.546,0.546,0.545,0.545,0.544,0.543,0.543,0.542,0.541,0.541,0.54,0.54,0.539,0.538,0.538,0.538,0.537,0.537,0.536,0.536,0.535,0.535,0.535,0.534,0.534,0.534,0.533,0.534,0.533,0.534,0.534,0.534,0.534,0.534,0.535,0.535,0.535,0.536,0.536,0.536,0.537,0.537,0.538,0.538,0.539,0.54,0.54,0.541,0.541,0.542,0.543,0.543,0.544,0.545,0.546,0.547,0.548,0.549,0.551,0.552,0.554,0.556,0.558,0.56,0.562,0.564,0.566,0.569,0.57,0.571,0.572,0.572,0.573,0.573,0.572,0.572,0.572,0.572,0.571,0.571,0.571,0.571,0.572,0.572,0.572,0.572,0.572,0.573,0.573,0.573,0.573,0.573,0.573,0.572,0.573,0.572,0.572,0.572,0.572,0.571,0.571,0.571,0.571,0.571,0.571,0.571,0.572,0.572,0.572,0.572,0.572,0.572,0.572,0.572,0.573,0.573,0.574,0.574,0.575,0.575,0.576,0.577,0.577,0.578,0.579,0.58,0.58,0.58,0.581,0.581,0.581,0.581,0.581,0.581,0.581,0.58,0.58,0.579,0.578,0.577,0.577,0.577,0.579,0.58,0.581,0.582,0.584,0.585,0.586,0.586,0.587,0.587,0.588,0.588,0.589,0.589,0.589,0.589,0.589,0.589,0.589,0.589,0.589,0.589,0.589,0.589,0.589,0.589,0.589,0.589,0.589,0.589,0.588,0.588,0.587,0.586,0.586,0.586,0.586,0.587,0.587,0.588,0.589,0.589,0.59,0.591,0.593,0.595,0.597,0.6,0.603,0.606,0.609,0.611,0.612,0.613,0.614,0.614,0.615,0.616,0.617,0.618,0.619,0.621,0.623,0.625,0.626,0.628,0.63,0.631,0.633,0.634,0.635,0.635,0.636,0.636,0.637,0.637,0.637,0.637,0.638,0.638,0.638,0.638,0.637,0.637,0.637,0,0,0.637,0,0,0,0,0,0,0,0,0,0.767,0.767,0.768,0.769,0.77,0.771,0.772,0.773,0.775,0.776,0.778,0.779,0.78,0.782,0.783,0.784,0.785,0.786,0.787,0.788,0.789,0.79,0.79,0.792,0.792,0.793,0.795,0.797,0.799,0.802,0.804,0.807,0.81,0.812,0.814,0.816,0.817,0.818,0.819,0.82,0.82,0.821,0.822,0.824,0.825,0.825,0.826,0.827,0.828,0.829,0.83,0.83,0.831,0.832,0.833,0.834,0.836,0.838,0.839,0.84,0.841,0.842,0.843,0.844,0.845,0.846,0.848,0.85,0.851,0.853,0.854,0.856,0.856,0.857,0.858,0.858,0.859,0.859,0.859,0.859,0.859,0.858,0.858,0.857,0.856,0.856,0.857,0.858,0.858,0.86,0.86,0.862,0.864,0.866,0.867,0.869,0.869,0.871,0.872,0.874,0.875,0.876,0.878,0.88,0.881,0.882,0.882,0.883,0.882,0.884,0.884,0.885,0.885,0.886,0.887,0.887,0.887,0.887,0.887,0.887,0.887,0.887,0.888,0.889,0.889,0.89,0.892,0.892,0.892,0.892,0.893,0.894,0.894,0.895,0,0,0,0,0,0,0,0.88,0.871,0.866,0.859,0.858,0.856,0.855,0.854,0.854,0.853,0.852,0.851,0,0,0,0,0,0,0,0,0,0,0,0,1.127,1.127,1.127,0,0,0,1.133,1.134,1.135,1.138,0,0,0,0,0,1.147,1.147,1.148,1.15,1.15,1.148,1.148,1.148,1.148,1.148,1.147,1.146,1.145,1.142,1.142,1.144,1.144,1.142,1.142,1.144,1.144,1.144,1.144,1.144,1.142,1.142,1.142,1.142,1.142,1.142,1.142,1.142,1.142,1.142,1.141,1.142,1.142,1.145,1.146,1.147,1.15,1.151,1.153,1.156,1.157,1.158,1.158,1.157,1.157,1.158,1.157,1.158,1.159,1.16,1.162,1.164,1.165,1.165,1.167,1.165,1.165,1.167,1.167,1.167,1.168
0,0,0,0,0,0,0,0,0,0,0,0,0,0,0,0,0,0,0.613,0.612,0.611,0.609,0,0.604,0.599,0,0,0,0.584,0,0.577,0.574,0.571,0.569,0.567,0.566,0.565,0.564,0.563,0.562,0.561,0.56,0.559,0.558,0.557,0.556,0.555,0.554,0.553,0.552,0.551,0.55,0.549,0.548,0.547,0.546,0.546,0.546,0.545,0.544,0.544,0.543,0.543,0.542,0.542,0.541,0.54,0.54,0.539,0.539,0.538,0.538,0.538,0.538,0.537,0.537,0.536,0.536,0.536,0.536,0.535,0.535,0.535,0.534,0.535,0.535,0.535,0.535,0.535,0.535,0.535,0.536,0.536,0.536,0.536,0.537,0.537,0.538,0.538,0.538,0.539,0.54,0.541,0.541,0.542,0.543,0.543,0.544,0.545,0.546,0.546,0.548,0.549,0.55,0.551,0.552,0.553,0.555,0.556,0.558,0.559,0.562,0.564,0.566,0.568,0.57,0.571,0.572,0.573,0.573,0.573,0.573,0.573,0.572,0.572,0.572,0.571,0.571,0.571,0.572,0.572,0.572,0.572,0.572,0.573,0.573,0.573,0.573,0.573,0.573,0.572,0.573,0.572,0.572,0.572,0.572,0.572,0.572,0.572,0.572,0.572,0.572,0.572,0.572,0.572,0.572,0.572,0.572,0.572,0.572,0.573,0.573,0.573,0.574,0.575,0.575,0.576,0.576,0.577,0.578,0.579,0.579,0.58,0.58,0.581,0.581,0.581,0.581,0.581,0.582,0.581,0.581,0.581,0.581,0.58,0.579,0.579,0.578,0.578,0.579,0.58,0.582,0.583,0.584,0.585,0.585,0.587,0.587,0.588,0.589,0.589,0.59,0.59,0.59,0.591,0.591,0.59,0.59,0.591,0.591,0.59,0.59,0.59,0.59,0.59,0.59,0.59,0.59,0.589,0.589,0.589,0.588,0.588,0.588,0.588,0.588,0.588,0.588,0.589,0.59,0.59,0.591,0.593,0.595,0.597,0.599,0.602,0.604,0.607,0.61,0.612,0.613,0.614,0.614,0.615,0.615,0.616,0.617,0.618,0.62,0.622,0.623,0.625,0.627,0.629,0.63,0.632,0.634,0.635,0.635,0.636,0.637,0.637,0.637,0.638,0.638,0.638,0.638,0.639,0.639,0.639,0.638,0.639,0.639,0,0,0,0,0,0,0,0,0,0,0.768,0.768,0.768,0.769,0.769,0.77,0.771,0.771,0.773,0.774,0.776,0.777,0.779,0.78,0.781,0.783,0.784,0.785,0.786,0.787,0.788,0.789,0.79,0.79,0.792,0.792,0.793,0.794,0.796,0.798,0.801,0.804,0.806,0.809,0.811,0.814,0.815,0.817,0.819,0.82,0.82,0.821,0.822,0.823,0.824,0.825,0.826,0.826,0.828,0.829,0.83,0.83,0.831,0.831,0.832,0.833,0.834,0.836,0.838,0.84,0.84,0.841,0.843,0.844,0.845,0.847,0.848,0.849,0.851,0.852,0.854,0.856,0.858,0.858,0.86,0.86,0.861,0.861,0.862,0.862,0.862,0.862,0.862,0.862,0.861,0.86,0.86,0.86,0.861,0.862,0.863,0.864,0.865,0.867,0.869,0.871,0.872,0.873,0.874,0.876,0.877,0.878,0.88,0.882,0.884,0.886,0.886,0.887,0.887,0.887,0.887,0.887,0.887,0.888,0.887,0.889,0.889,0.89,0.89,0.89,0.89,0.89,0.89,0.89,0.892,0.892,0.894,0.894,0.896,0.897,0.897,0.897,0.899,0.899,0.9,0.9,0.9,0.901,0.905,0,0,0,0,0,0.875,0.869,0.86,0.858,0.857,0.856,0.855,0.854,0.854,0.854,0,0,0,0,0,0,0,0,0,0,0,0,0,1.124,1.124,0,0,0,0,0,1.132,1.133,0,0,0,0,0,0,0,1.144,1.145,1.146,1.146,1.146,1.146,1.145,1.146,1.145,1.144,1.142,1.14,1.139,1.14,1.14,1.14,1.139,1.139,1.14,1.14,1.141,1.14,1.14,1.139,1.139,1.139,1.139,1.138,1.138,1.139,1.139,1.139,1.138,1.138,1.138,1.139,1.14,1.141,1.142,1.145,1.147,1.15,1.151,1.152,1.153,1.153,1.153,1.153,1.153,1.153,1.154,1.154,1.156,1.158,1.159,1.16,1.162,1.162,1.16,1.16,1.162,1.163,1.163,1.164
0,0,0,0,0,0,0,0,0,0,0,0,0,0,0,0,0,0,0,0.613,0.611,0,0,0,0.598,0.594,0.59,0.588,0.585,0.582,0.578,0.575,0.572,0.57,0.569,0.568,0.567,0.566,0.565,0.563,0.562,0.561,0.56,0.559,0.558,0.557,0.556,0.554,0.553,0.552,0.551,0.55,0.549,0.548,0.546,0.546,0.545,0.545,0.544,0.544,0.543,0.542,0.542,0.541,0.541,0.54,0.54,0.54,0.539,0.539,0.538,0.538,0.538,0.537,0.537,0.537,0.537,0.537,0.536,0.536,0.536,0.536,0.536,0.536,0.536,0.536,0.536,0.536,0.536,0.536,0.536,0.537,0.537,0.537,0.537,0.538,0.538,0.538,0.539,0.54,0.54,0.541,0.542,0.542,0.543,0.544,0.545,0.545,0.546,0.547,0.548,0.549,0.55,0.551,0.552,0.552,0.554,0.555,0.556,0.557,0.559,0.561,0.564,0.566,0.568,0.57,0.571,0.572,0.573,0.573,0.573,0.573,0.573,0.573,0.572,0.572,0.572,0.571,0.571,0.571,0.572,0.572,0.572,0.572,0.572,0.573,0.573,0.573,0.573,0.573,0.572,0.573,0.573,0.573,0.573,0.572,0.572,0.572,0.572,0.572,0.572,0.572,0.572,0.572,0.572,0.572,0.572,0.572,0.573,0.573,0.573,0.573,0.574,0.574,0.575,0.575,0.576,0.577,0.577,0.578,0.579,0.58,0.58,0.581,0.581,0.581,0.582,0.582,0.582,0.582,0.582,0.582,0.582,0.581,0.581,0.581,0.58,0.579,0.58,0.58,0.581,0.582,0.583,0.585,0.585,0.586,0.587,0.588,0.589,0.589,0.59,0.59,0.591,0.592,0.592,0.592,0.592,0.592,0.592,0.592,0.592,0.591,0.591,0.591,0.591,0.591,0.591,0.59,0.59,0.589,0.589,0.589,0.589,0.589,0.589,0.589,0.59,0.59,0.591,0.592,0.593,0.594,0.595,0.597,0.599,0.601,0.603,0.606,0.609,0.611,0.612,0.614,0.615,0.615,0.616,0.616,0.617,0.618,0.619,0.62,0.622,0.623,0.625,0.627,0.629,0.63,0.632,0.634,0.635,0.636,0.637,0.638,0.638,0.638,0.639,0.639,0.639,0.639,0.64,0.64,0.64,0.64,0.64,0.64,0.64,0.64,0.64,0,0,0,0,0,0,0,0.77,0.77,0.77,0.77,0.77,0.77,0.771,0.772,0.773,0.774,0.776,0.777,0.779,0.78,0.782,0.783,0.785,0.786,0.787,0.788,0.789,0.79,0.791,0.792,0.792,0.793,0.793,0.795,0.797,0.8,0.802,0.805,0.808,0.811,0.814,0.815,0.817,0.819,0.821,0.822,0.822,0.822,0.823,0.824,0.825,0.826,0.827,0.828,0.828,0.83,0.831,0.831,0.832,0.833,0.833,0.834,0.836,0.837,0.839,0.84,0.842,0.843,0.845,0.847,0.848,0.849,0.851,0.852,0.854,0.856,0.858,0.859,0.86,0.862,0.862,0.864,0.864,0.864,0.865,0.866,0.866,0.866,0.866,0.866,0.865,0.865,0.865,0.866,0.866,0.867,0.868,0.869,0.871,0.872,0.874,0.876,0.877,0.879,0.88,0.882,0.882,0.884,0.885,0.887,0.889,0.89,0.891,0.892,0.892,0.892,0.891,0.891,0.892,0.891,0.891,0.892,0.892,0.893,0.894,0.894,0.893,0.894,0.894,0.894,0.895,0.896,0.897,0.899,0.9,0.902,0.902,0.902,0.903,0.902,0.903,0.903,0.903,0.905,0.91,0.912,0,0,0.91,0,0,0,0,0,0.858,0.856,0,0,0,0,0,0,0,0,0,0,0,0,0,0,0,0,1.122,1.122,1.123,0,0,0,0,0,1.132,0,0,0,0,0,0,0,0,0,1.142,1.142,1.142,1.142,1.142,1.141,1.142,1.141,1.14,1.139,1.138,1.138,1.138,1.138,1.138,1.137,1.137,1.137,1.137,1.137,1.135,1.135,1.135,1.135,1.135,1.135,1.135,1.135,1.134,1.135,1.134,1.134,1.134,1.134,1.134,1.137,1.138,1.139,1.141,1.142,1.145,1.146,1.148,1.15,1.15,1.148,1.148,1.15,1.15,1.15,1.151,1.152,1.153,1.154,1.156,1.156,1.156,1.156,1.156,1.157,1.158,1.159,1.16
0,0,0,0,0,0,0,0,0,0,0,0,0,0,0,0,0,0,0,0.612,0,0.608,0.606,0.603,0.598,0.594,0.591,0.589,0.586,0.583,0.58,0.577,0.574,0.572,0.571,0.569,0.569,0.567,0.566,0.565,0.564,0.563,0.561,0.56,0.559,0.558,0.557,0.555,0.554,0.552,0.551,0.55,0.548,0.547,0.546,0.545,0.544,0.544,0.543,0.542,0.542,0.541,0.541,0.541,0.54,0.54,0.539,0.539,0.539,0.538,0.538,0.538,0.538,0.537,0.537,0.537,0.537,0.537,0.537,0.537,0.536,0.536,0.536,0.536,0.537,0.536,0.537,0.537,0.537,0.537,0.537,0.538,0.538,0.538,0.538,0.539,0.539,0.54,0.54,0.541,0.541,0.542,0.543,0.544,0.544,0.545,0.546,0.547,0.548,0.549,0.549,0.551,0.551,0.552,0.552,0.553,0.554,0.555,0.556,0.557,0.558,0.561,0.563,0.565,0.568,0.57,0.571,0.572,0.573,0.574,0.573,0.573,0.573,0.573,0.572,0.572,0.572,0.572,0.571,0.572,0.572,0.572,0.572,0.572,0.572,0.573,0.573,0.573,0.573,0.573,0.572,0.573,0.573,0.573,0.573,0.572,0.572,0.572,0.572,0.572,0.572,0.572,0.572,0.573,0.573,0.573,0.573,0.573,0.573,0.573,0.573,0.574,0.574,0.574,0.575,0.575,0.576,0.577,0.577,0.578,0.579,0.58,0.581,0.581,0.581,0.582,0.583,0.583,0.583,0.583,0.583,0.584,0.583,0.583,0.583,0,0,0,0,0,0,0.583,0.584,0.585,0.586,0.586,0.588,0.589,0.589,0.59,0.591,0.591,0.592,0.593,0.593,0.593,0.593,0.593,0.593,0.593,0.593,0.592,0.592,0.592,0.591,0.591,0.591,0.591,0.59,0.59,0.59,0.59,0.59,0.59,0.591,0.591,0.592,0.592,0.593,0.594,0.595,0.596,0.597,0.6,0.602,0.604,0.606,0.609,0.611,0.613,0.614,0.615,0.616,0.616,0.616,0.617,0.618,0.618,0.619,0.621,0.622,0.624,0.625,0.627,0.629,0.63,0.632,0.634,0.635,0.637,0.637,0.638,0.639,0.639,0.64,0.64,0.641,0.641,0.641,0.641,0.641,0.641,0.641,0.641,0.641,0.641,0.641,0,0,0,0,0,0,0.771,0.771,0.77,0.77,0.77,0.77,0.77,0.77,0.771,0.772,0.774,0.776,0.778,0.779,0.781,0.782,0.784,0.785,0.787,0.788,0.789,0.79,0.791,0.792,0.793,0.793,0.794,0.794,0.796,0.798,0.801,0.804,0.807,0.81,0.812,0.815,0.817,0.819,0.821,0.822,0.822,0.823,0.823,0.824,0.825,0.826,0.827,0.828,0.828,0.829,0.83,0.831,0.831,0.833,0.833,0.834,0.835,0.836,0.838,0.84,0.841,0.843,0.845,0.847,0.849,0.851,0.852,0.854,0.856,0.857,0.858,0.86,0.862,0.864,0.864,0.866,0.866,0.867,0.867,0.868,0.869,0.869,0.869,0.869,0.869,0.87,0.87,0.87,0.871,0.872,0.873,0.873,0.874,0.876,0.877,0.879,0.881,0.882,0.883,0.884,0.886,0.887,0.889,0.89,0.892,0.894,0.895,0.896,0.897,0.897,0.897,0.897,0.896,0.896,0.896,0.896,0.896,0.897,0.898,0.898,0.898,0.897,0.897,0.897,0.897,0.898,0.9,0.901,0.902,0.904,0.905,0,0,0.908,0.908,0.908,0.908,0.908,0.91,0.914,0,0,0.914,0.921,0,0,0,0,0,0,0.856,0,0,0,0,0,0,0,0,0,0,0,0,0,0,0,1.119,1.119,1.119,0,0,0,0,0,0,0,1.133,1.134,1.135,1.137,1.137,0,0,1.138,1.139,1.14,1.14,1.14,1.139,1.139,1.139,1.139,1.138,1.138,1.135,1.135,1.135,1.134,1.135,1.135,1.134,1.134,1.134,1.134,1.133,1.133,1.132,1.131,1.132,1.132,1.132,1.132,1.132,1.132,1.132,1.132,1.132,1.131,1.131,1.132,1.133,1.134,1.135,1.137,1.138,1.14,1.142,1.144,1.144,1.145,1.145,1.145,1.146,1.146,1.146,1.147,1.148,1.15,1.151,1.152,1.152,1.152,1.151,1.151,1.152,1.153,1.156,1.157
0,0,0,0,0,0,0,0,0,0,0,0,0,0,0,0,0,0,0,0.614,0.612,0,0,0.604,0.599,0.594,0.591,0.589,0.587,0.584,0.581,0.578,0.576,0.574,0.573,0.572,0.57,0.569,0.568,0.567,0.566,0.565,0.563,0.562,0.561,0.559,0.557,0.556,0.554,0.552,0.551,0.549,0.548,0.547,0.545,0.544,0.544,0.543,0.542,0.542,0.541,0.541,0.54,0.54,0.54,0.539,0.539,0.538,0.538,0.538,0.538,0.538,0.537,0.537,0.537,0.537,0.537,0.537,0.537,0.537,0.537,0.537,0.537,0.537,0.537,0.537,0.538,0.538,0.538,0.538,0.538,0.539,0.539,0.539,0.539,0.54,0.54,0.54,0.541,0.542,0.542,0.543,0.544,0.545,0.546,0.546,0.547,0.548,0.549,0.55,0.551,0.552,0.552,0.553,0.553,0.554,0.554,0.555,0.556,0.557,0.558,0.56,0.562,0.564,0.566,0.569,0.57,0.571,0.572,0.573,0.573,0.573,0.573,0.573,0.572,0.572,0.572,0.572,0.572,0.572,0.572,0.572,0.572,0.572,0.572,0.572,0.573,0.573,0.573,0.573,0.573,0.573,0.573,0.573,0.573,0.572,0.573,0.573,0.573,0.573,0.573,0.573,0.573,0.573,0.573,0.574,0.574,0.574,0.574,0.574,0.574,0.574,0.574,0.574,0.575,0.576,0.576,0.577,0.578,0.579,0.58,0.581,0.581,0.582,0.582,0.583,0.584,0.584,0.584,0.585,0.585,0.585,0.585,0.585,0.585,0,0,0,0,0,0,0,0.584,0.585,0.586,0.587,0.589,0.59,0.591,0.591,0.592,0.593,0.594,0.594,0.594,0.594,0.594,0.594,0.594,0.594,0.594,0.594,0.593,0.593,0.592,0.592,0.591,0.591,0.591,0.591,0.591,0.591,0.591,0.592,0,0,0.594,0.594,0.595,0.596,0.597,0.598,0.6,0.602,0.604,0.606,0.609,0.611,0.613,0.614,0.616,0.616,0.617,0.617,0.618,0.618,0.619,0.619,0.62,0.621,0.623,0.624,0.625,0.627,0.628,0.63,0.632,0.634,0.635,0.637,0.638,0.639,0.639,0.64,0.641,0.641,0.641,0.641,0.642,0.642,0.642,0.642,0.642,0.641,0.641,0.641,0.641,0,0,0,0,0,0,0.772,0.771,0.771,0.77,0.77,0.77,0.77,0.77,0.771,0.772,0.774,0.776,0.778,0.779,0.782,0.783,0.785,0.787,0.788,0.789,0.79,0.791,0.792,0.793,0.793,0.794,0.795,0.796,0.797,0.8,0.802,0.805,0.808,0.811,0.814,0.816,0.818,0.82,0.822,0.823,0.823,0.823,0.824,0.825,0.826,0.826,0.828,0.828,0.829,0.83,0.831,0.831,0.831,0.833,0.833,0.834,0.834,0.836,0.838,0.84,0.842,0.844,0.847,0.849,0.851,0.853,0.855,0.857,0.858,0.86,0.861,0.863,0.864,0.866,0.866,0.867,0.869,0.869,0.87,0.87,0.871,0.871,0.872,0.873,0.873,0.873,0.874,0.875,0.876,0.877,0.877,0.878,0.879,0.88,0.882,0.883,0.885,0.887,0.888,0.889,0.891,0.892,0.894,0.895,0.897,0.898,0.899,0.901,0.901,0.901,0.901,0.901,0.901,0.9,0.9,0.9,0.9,0.902,0.902,0.904,0.904,0.903,0.902,0.902,0.902,0.903,0.905,0.906,0.907,0.909,0.911,0.912,0.911,0.913,0.913,0.913,0.913,0.913,0.915,0.92,0.924,0,0.924,0.931,0.946,0,0,0,0,0,0.858,0.856,0,0,0,0,0,0,0,0,0,0,0,0,0,1.118,1.118,1.119,1.119,1.119,0,0,1.126,1.129,1.13,0,1.132,1.133,1.134,1.135,1.137,1.137,0,1.138,1.138,1.138,1.138,1.139,1.138,1.138,1.138,1.137,1.137,1.135,1.134,1.134,1.133,1.134,1.134,1.134,1.133,1.132,1.132,1.131,1.131,1.13,1.13,1.13,1.13,1.13,1.13,1.13,1.13,1.13,1.131,1.13,1.13,1.129,1.129,1.129,1.13,1.131,1.132,1.133,1.134,1.137,1.139,1.14,1.14,1.141,1.141,1.141,1.142,1.144,1.144,1.144,1.145,1.146,1.146,1.147,1.147,1.147,1.146,1.146,1.148,1.15,1.151,1.153
0,0,0,0,0,0,0,0,0,0,0,0,0,0,0,0,0,0,0,0.617,0,0,0.61,0.606,0.601,0.597,0.594,0.591,0.589,0.585,0.583,0.58,0.578,0.576,0.575,0.573,0.572,0.571,0.57,0.569,0.567,0.566,0.565,0.563,0.562,0.56,0.559,0.557,0.554,0.552,0.551,0.549,0.548,0.546,0.545,0.544,0.543,0.542,0.541,0.541,0.54,0.54,0.539,0.539,0.538,0.538,0.538,0.538,0.538,0.538,0.537,0.537,0.537,0.537,0.537,0.537,0.537,0.537,0.537,0.537,0.537,0.537,0.537,0.537,0.538,0.538,0.538,0.539,0.539,0.539,0.54,0.54,0.54,0.54,0.54,0.541,0.541,0.541,0.542,0.543,0.543,0.544,0.545,0.546,0.547,0.548,0.548,0.549,0.55,0.551,0.552,0.552,0.553,0.553,0.554,0.554,0.554,0.555,0.556,0.557,0.557,0.559,0.561,0.563,0.565,0.567,0.569,0.57,0.571,0.572,0.573,0.573,0.573,0.573,0.573,0.573,0.572,0.572,0.572,0.572,0.572,0.572,0.572,0.572,0.572,0.572,0.572,0.573,0.573,0.573,0.573,0.573,0.573,0.574,0.574,0.573,0.573,0.573,0,0,0,0,0.574,0.574,0.574,0.574,0.574,0.574,0.575,0.574,0.574,0.574,0.574,0.575,0.575,0.576,0.577,0.577,0.578,0.579,0.58,0.581,0.582,0.582,0.583,0.584,0.584,0.585,0.585,0.586,0.586,0.586,0.587,0.586,0.586,0,0,0,0,0,0,0,0.585,0.585,0.587,0.588,0.59,0.591,0.593,0.593,0.594,0.595,0.595,0.596,0.596,0.596,0.596,0.595,0.595,0.595,0.595,0.595,0.594,0.594,0.593,0.593,0.592,0.592,0.592,0.592,0.592,0.592,0.593,0.593,0.594,0.595,0.595,0.596,0.597,0.598,0.599,0.601,0.602,0.605,0.607,0.609,0.611,0.613,0.614,0.616,0.617,0.617,0.618,0.618,0.618,0.619,0.619,0.62,0.621,0.622,0.623,0.624,0.625,0.627,0.629,0.63,0.632,0.634,0.636,0.637,0.638,0.639,0.64,0.641,0.642,0.642,0.642,0.642,0.642,0.643,0.642,0.642,0.642,0.642,0.641,0.641,0.641,0,0,0,0,0.772,0.772,0.771,0.771,0.77,0.77,0.77,0.77,0.77,0.77,0.77,0.772,0.773,0.776,0.778,0.78,0.782,0.784,0.786,0.788,0.789,0.791,0.792,0.792,0.793,0.794,0.794,0.796,0.796,0.797,0.799,0.801,0.804,0.807,0.81,0.813,0.815,0.818,0.82,0.821,0.822,0.823,0.823,0.824,0.825,0.825,0.826,0.827,0.828,0.829,0.829,0.83,0.831,0.831,0.831,0.832,0.833,0.834,0.834,0.836,0.838,0.84,0.842,0.845,0.847,0.85,0.852,0.855,0.858,0.86,0.861,0.862,0.864,0.865,0.866,0.868,0.869,0.87,0.871,0.871,0.872,0.872,0.873,0.873,0.874,0.875,0.876,0.877,0.877,0.879,0.88,0.881,0.882,0.883,0.884,0.885,0.886,0.887,0.889,0.891,0.893,0.894,0.896,0,0.898,0.9,0.901,0.902,0.903,0.905,0.904,0.905,0.905,0.905,0.905,0.905,0.905,0.905,0.905,0.906,0.908,0.909,0.909,0.909,0.908,0.908,0.908,0.908,0.91,0.911,0.912,0.914,0.916,0.917,0.917,0.919,0.919,0.919,0.919,0.919,0.921,0.925,0.929,0,0.934,0.937,0,0,0,0,0.878,0.866,0.86,0.858,0,0,0,0,0,0,0,0,0,0,0,0,0,1.116,1.117,1.118,1.118,1.119,1.121,1.122,1.125,1.129,1.13,1.131,0,1.134,1.134,1.135,1.135,1.137,1.135,1.137,1.138,1.138,1.137,1.138,1.137,1.137,1.137,1.135,1.135,1.134,1.134,1.134,1.133,1.133,1.133,1.132,1.131,1.13,1.13,1.13,1.129,1.129,1.127,1.127,1.127,1.127,1.129,1.129,1.129,1.129,1.129,1.129,1.129,1.127,1.126,1.126,1.127,1.127,1.129,1.13,1.131,1.133,1.134,1.135,1.137,1.138,1.138,1.139,1.139,1.14,1.14,1.141,1.141,1.142,1.142,1.142,1.142,1.142,1.142,1.142,1.145,1.146,1.148,1.151
0,0,0,0,0,0,0,0,0,0,0,0,0,0,0,0,0,0,0,0.619,0.617,0,0,0,0,0.6,0.596,0.593,0.59,0.588,0.585,0.582,0.58,0.578,0.576,0.575,0.574,0.573,0.572,0.57,0.569,0.568,0.566,0.565,0.563,0.561,0.56,0.557,0.555,0.553,0.551,0.549,0.548,0.546,0.545,0.543,0.542,0.542,0.541,0.54,0.539,0.539,0.538,0.538,0.538,0.538,0.538,0.537,0.537,0.537,0.537,0.537,0.537,0.536,0.536,0.536,0.536,0.536,0.536,0.537,0.537,0.537,0.537,0.538,0.538,0.538,0.539,0.539,0.54,0.54,0.541,0.541,0.541,0.541,0.541,0.542,0.542,0.542,0.543,0.544,0.544,0.545,0.546,0.547,0.548,0.549,0.549,0.55,0.551,0.552,0.552,0.553,0.553,0.554,0.554,0.554,0.555,0.555,0.556,0.557,0.557,0.559,0.561,0.563,0.564,0.565,0.567,0.569,0.57,0.571,0.572,0.572,0.572,0.572,0.573,0.573,0.572,0.572,0.572,0.572,0.572,0.572,0.572,0.572,0.572,0.572,0.572,0.573,0.573,0.573,0.573,0.573,0.574,0.574,0.574,0.573,0.574,0.574,0.574,0.574,0.574,0.574,0.574,0.575,0.575,0.575,0.575,0.575,0.575,0.575,0.575,0.575,0.575,0.575,0.575,0.576,0.577,0.578,0.579,0.58,0.581,0.581,0.582,0.583,0.584,0.584,0.585,0.585,0.586,0.587,0.587,0.588,0.588,0.587,0.587,0.586,0,0,0,0,0,0.584,0.585,0.586,0.587,0.589,0.591,0.593,0.595,0.595,0.596,0.597,0.597,0.597,0.598,0.597,0.597,0.597,0.597,0.596,0.596,0.596,0.595,0.595,0.594,0.594,0.593,0.593,0.593,0.593,0.594,0.594,0.594,0.595,0.595,0.596,0.597,0.598,0.599,0.6,0.602,0.604,0.605,0.607,0.609,0.611,0.613,0.615,0.616,0.617,0.618,0.618,0.619,0.619,0.619,0.619,0.62,0.621,0.622,0.623,0.624,0.625,0.626,0.628,0.629,0.631,0.633,0.635,0.637,0.638,0.639,0.641,0.641,0.642,0.643,0.643,0.643,0.644,0.643,0.643,0.643,0.643,0.642,0.642,0.641,0.641,0.641,0,0,0,0,0.772,0.772,0.771,0.771,0.771,0.77,0.769,0.769,0.769,0.769,0.77,0.771,0.772,0.775,0.777,0.78,0.782,0.785,0.787,0.789,0.79,0.792,0.792,0.793,0.794,0.795,0.796,0.797,0.798,0.799,0.801,0.803,0.806,0.808,0.811,0.814,0.817,0.818,0.82,0.822,0.822,0.823,0.824,0.825,0.825,0.826,0.827,0.828,0.828,0.829,0.829,0.83,0.83,0.831,0.831,0.832,0.833,0.833,0.834,0.836,0.838,0.84,0.843,0.845,0.848,0.851,0.854,0.857,0.86,0.862,0.864,0.865,0.866,0.868,0.869,0.87,0.871,0.871,0.872,0.873,0.874,0.874,0.875,0.875,0.876,0.877,0.877,0.88,0.88,0.882,0.883,0.884,0.885,0.886,0.887,0.889,0.89,0.892,0.894,0.895,0.897,0.899,0.901,0.902,0.903,0.905,0.905,0.906,0.908,0.908,0.908,0.908,0.908,0.909,0.909,0.909,0.909,0.91,0.91,0.911,0.912,0.914,0.914,0.913,0.912,0.912,0.913,0.914,0.914,0.916,0.917,0.919,0.921,0.923,0.923,0.924,0.923,0.923,0.923,0.924,0.925,0.929,0,0.936,0.939,0.943,0,0,0,0,0,0,0,0,0,0,0,0,0,0,0,0,0,0,0,0,0,1.112,1.114,1.115,1.115,1.118,1.121,1.122,1.125,1.127,1.13,1.131,1.132,1.133,1.134,1.135,1.135,1.137,1.135,1.137,1.137,1.137,1.137,1.135,1.137,1.135,1.137,1.137,1.134,1.134,1.133,1.133,1.133,1.132,1.132,1.131,1.131,1.129,1.129,1.127,1.127,1.127,1.126,1.126,1.126,1.126,1.126,1.127,1.127,1.127,1.127,1.127,1.126,1.126,1.125,1.125,1.125,1.125,1.126,1.127,1.129,1.13,1.132,1.133,1.133,1.134,1.137,1.137,1.138,1.138,1.138,1.139,1.139,1.14,1.14,1.14,1.14,1.14,1.139,1.14,1.141,1.142,1.145,1.147
0,0,0,0,0,0,0,0,0,0,0,0,0,0,0,0,0,0,0,0.62,0.619,0.616,0,0.611,0.607,0.603,0.599,0.596,0.593,0.59,0.587,0.584,0.582,0.579,0.578,0.577,0.575,0.575,0.573,0.572,0.571,0.569,0.568,0.566,0.564,0.562,0.561,0.558,0.556,0.554,0.551,0.55,0.548,0.546,0.545,0.543,0.542,0.541,0.54,0.539,0.539,0.538,0.538,0.538,0.537,0.537,0.537,0.537,0.537,0.537,0.537,0.536,0.536,0.536,0.536,0.536,0.536,0.536,0.536,0.536,0.537,0.537,0.538,0.538,0.538,0.539,0.54,0.54,0.541,0.541,0.541,0.542,0.542,0.542,0.542,0.543,0.543,0.543,0.544,0.544,0.545,0.546,0.547,0.548,0.549,0.549,0.55,0.551,0.552,0.552,0.553,0.554,0.554,0.554,0.555,0.555,0.555,0.555,0.556,0.556,0.557,0.558,0.56,0.561,0.563,0.564,0.566,0.567,0.569,0.571,0.571,0.572,0.572,0.573,0.573,0.573,0.573,0.572,0.572,0.572,0.572,0.572,0.572,0.572,0.572,0.572,0.572,0.573,0.573,0.573,0.573,0.574,0.574,0.574,0.574,0.574,0.574,0.574,0.574,0.575,0.575,0.575,0.575,0.575,0.575,0.575,0.575,0.575,0.575,0.575,0.575,0.575,0.575,0.575,0.576,0.577,0.577,0.578,0.579,0.58,0.581,0.582,0.582,0.583,0.584,0.585,0.585,0.586,0.587,0.587,0.588,0.588,0.588,0.588,0.587,0.586,0.585,0.584,0.583,0.582,0.583,0.584,0.585,0.587,0.589,0.59,0.593,0.595,0.596,0.597,0.598,0.599,0.599,0.599,0.599,0.599,0.599,0.598,0.598,0.598,0.597,0.597,0.597,0.596,0.595,0.595,0.595,0.595,0.595,0.595,0.595,0.595,0.595,0.596,0.597,0.598,0.599,0.6,0.601,0.603,0.604,0.606,0.607,0.609,0.611,0.613,0.615,0.616,0.617,0.618,0.619,0.619,0.619,0.619,0.62,0.62,0.62,0.621,0.622,0.623,0.624,0.625,0.626,0.628,0.63,0.632,0.634,0.636,0.638,0.639,0.641,0.642,0.643,0.644,0.644,0.644,0.645,0.644,0.644,0.644,0.644,0.643,0.642,0.642,0.642,0.641,0.64,0,0,0,0,0,0.771,0.77,0.77,0.77,0.769,0.769,0.769,0.768,0.769,0.769,0.77,0.772,0.774,0.777,0.78,0.783,0.785,0.787,0.789,0.791,0.793,0.793,0.794,0.795,0.796,0.797,0.798,0.8,0.801,0.802,0.805,0.808,0.81,0.813,0.815,0.817,0.819,0.821,0.822,0.823,0.824,0.825,0.825,0.826,0.826,0.827,0.828,0.828,0.829,0.83,0.83,0.831,0.831,0.831,0.832,0.833,0.834,0.835,0.836,0.838,0.841,0.843,0.847,0.849,0.852,0.856,0.858,0.862,0.864,0.866,0.867,0.869,0.87,0.871,0.872,0.873,0.873,0.874,0.875,0.875,0.876,0.876,0.877,0.877,0.879,0.88,0.881,0.882,0.883,0.884,0.887,0.888,0.889,0.89,0.892,0.893,0.894,0.897,0.899,0.901,0.903,0.905,0.907,0.908,0.909,0.91,0.911,0.911,0.911,0.911,0.912,0.911,0.912,0.913,0.913,0.914,0.914,0.914,0.915,0.916,0.917,0.918,0.917,0.917,0.917,0.917,0.918,0.919,0.92,0.922,0.924,0.925,0.927,0.927,0.927,0.927,0.926,0.927,0.927,0.929,0.931,0,0,0,0,0.949,0,0,0,0,0,0,0,0,0,0,0,0,0,0,0,0,0,0,0,0,1.11,1.112,1.113,1.115,1.117,1.119,1.122,1.125,1.129,1.13,1.13,1.131,1.133,1.133,1.134,1.135,1.135,1.135,1.137,1.135,1.135,1.135,1.135,1.135,1.135,1.135,1.135,1.133,1.133,1.133,1.132,1.132,1.131,1.131,1.13,1.13,1.129,1.127,1.127,1.126,1.126,1.125,1.125,1.125,1.125,1.126,1.126,1.126,1.126,1.125,1.125,1.124,1.124,1.123,1.123,1.123,1.124,1.124,1.126,1.126,1.127,1.13,1.131,1.132,1.133,1.134,1.134,1.135,1.135,1.137,1.137,1.138,1.138,1.137,1.138,1.137,1.137,1.138,1.138,1.139,1.14,1.142,1.144
0,0,0,0,0,0,0,0,0,0,0,0,0,0,0,0,0,0,0,0.622,0.62,0.618,0,0,0,0,0.602,0.598,0.595,0.592,0.589,0.586,0.584,0.581,0.58,0.579,0.577,0.576,0.575,0.573,0.572,0.57,0.569,0.567,0.565,0.563,0,0.559,0.556,0.554,0.552,0.55,0.548,0.546,0.544,0.543,0.542,0.541,0.54,0.539,0.538,0.538,0.537,0.537,0.537,0.537,0.537,0.537,0.537,0.536,0.536,0.536,0.536,0.535,0.535,0.535,0.535,0.536,0.536,0.536,0.536,0.537,0.537,0.538,0.539,0.539,0.54,0.541,0.541,0.542,0.542,0.542,0.543,0.543,0.543,0.544,0.544,0.544,0.545,0.545,0.546,0.547,0.548,0.549,0.549,0.551,0.551,0.552,0.553,0.553,0.554,0.554,0.554,0.555,0.555,0.555,0.555,0.556,0.556,0.556,0.557,0.558,0.559,0.561,0.562,0.563,0.564,0.566,0.568,0.57,0.571,0.571,0.572,0.573,0.573,0.573,0.572,0.572,0.572,0.572,0.572,0.572,0.572,0.572,0.572,0.572,0.573,0.573,0.573,0.573,0.574,0.574,0.574,0.574,0.575,0.574,0.575,0.575,0.575,0.575,0.575,0.575,0.575,0.576,0.575,0.576,0.576,0.576,0.576,0.576,0.576,0.575,0.575,0.576,0.576,0.577,0.578,0.578,0.579,0.58,0.581,0.582,0.583,0.584,0.585,0.585,0.586,0.586,0.587,0.588,0.588,0.588,0.588,0.587,0.586,0.585,0.584,0.583,0.582,0.582,0.583,0.584,0.585,0.587,0.59,0.592,0.595,0.597,0.598,0.599,0.6,0.601,0.601,0.601,0.601,0.601,0.6,0.6,0.599,0.599,0.598,0.598,0.598,0.597,0.597,0.596,0.596,0.596,0.596,0.596,0.596,0.596,0.597,0.597,0.598,0.599,0.6,0.601,0.603,0.605,0.606,0.608,0.61,0.611,0.613,0.615,0.616,0.617,0.618,0.619,0.619,0.62,0.62,0.62,0.62,0.62,0.621,0.622,0.622,0.623,0.624,0.625,0.627,0.629,0.63,0.633,0.634,0.637,0.638,0.64,0.641,0.643,0.644,0.645,0.645,0.645,0.646,0.645,0.645,0.645,0.644,0.643,0.643,0,0,0,0,0,0,0,0,0,0.77,0.769,0.769,0.768,0.768,0.767,0.767,0.767,0.768,0.768,0.77,0.772,0.774,0.777,0.78,0.783,0.785,0.788,0.79,0.792,0.793,0.794,0.795,0.796,0.797,0.798,0.799,0.801,0.802,0.804,0.807,0.81,0.812,0.814,0.815,0.818,0.82,0.822,0.823,0.823,0.824,0.825,0.825,0.826,0.827,0.828,0.828,0.829,0.83,0.83,0.83,0.831,0.831,0.831,0.833,0.833,0.834,0.836,0.838,0.84,0.841,0.845,0.847,0.851,0.854,0.857,0.86,0.862,0.866,0.867,0.869,0.871,0.872,0.873,0.874,0.874,0.875,0.875,0.876,0.877,0.877,0.878,0.879,0.88,0.881,0.882,0.883,0.884,0.885,0.887,0.889,0.89,0.892,0.893,0.894,0.896,0.897,0.9,0.902,0.905,0.907,0.909,0.911,0.911,0.912,0.914,0.914,0.914,0.914,0.914,0.914,0.915,0.916,0.917,0.917,0.917,0.917,0.917,0.918,0.92,0.92,0.921,0.921,0.921,0.921,0.921,0.922,0.924,0.924,0.926,0.927,0.929,0.93,0.93,0.931,0.931,0.93,0.93,0.931,0.934,0.936,0.939,0,0,0,0.951,0.953,0.948,0,0,0,0,0,0,0,0,0,0,0,0,0,0,0,0,0,0,1.109,1.112,1.113,1.115,1.117,1.119,1.122,1.125,1.127,1.129,1.13,1.13,1.132,1.133,1.133,1.134,1.134,1.134,1.134,1.134,1.134,1.134,1.134,1.134,1.134,1.134,1.133,1.133,1.132,1.131,1.131,1.131,1.13,1.13,1.129,1.127,1.127,1.126,1.126,1.126,1.125,1.125,1.125,1.125,1.125,1.125,1.125,1.125,1.124,1.124,1.124,1.124,1.123,1.122,1.122,1.122,1.122,1.123,1.124,1.125,1.126,1.127,1.129,1.13,1.131,1.132,1.132,1.133,1.134,1.134,1.134,1.135,1.135,1.135,1.135,1.135,1.135,1.135,1.137,1.138,1.139,1.14,1.141
0,0,0,0,0,0,0,0,0,0,0,0,0,0,0,0,0,0,0,0.622,0.621,0.619,0.617,0,0.612,0.608,0.604,0,0,0.594,0.591,0.588,0.586,0.583,0.582,0.581,0.579,0.577,0.576,0.575,0.573,0.571,0.57,0.568,0.566,0.564,0.561,0.559,0.557,0.554,0.552,0.55,0.548,0.546,0.545,0.543,0.541,0.54,0.539,0.538,0.538,0.537,0.537,0.537,0.537,0.537,0.537,0.537,0.536,0.536,0.536,0.536,0.535,0.535,0.535,0.535,0.535,0.535,0.535,0.536,0.536,0.537,0.538,0.538,0.539,0.54,0.541,0.541,0.542,0.542,0.543,0.543,0.544,0.544,0.544,0.545,0.545,0.545,0.546,0.547,0.547,0.548,0.549,0.55,0.551,0.551,0.552,0.553,0.554,0.554,0.554,0.555,0.555,0.555,0.555,0.555,0.555,0.556,0.556,0.556,0.557,0.557,0.559,0.559,0.56,0.561,0.563,0.565,0.567,0.569,0.57,0.571,0.571,0.572,0.573,0.573,0.572,0.572,0.572,0.572,0.572,0.572,0.572,0.572,0.572,0.572,0.573,0.573,0.573,0.574,0.574,0.574,0.574,0.575,0.575,0.574,0.575,0.575,0.575,0.575,0.576,0.576,0.576,0.576,0.576,0.576,0.576,0.576,0.576,0.576,0.576,0.576,0.576,0.576,0.577,0.577,0.578,0.579,0.58,0.581,0.582,0.583,0.583,0.584,0.585,0.585,0.586,0.587,0.587,0.588,0.589,0.588,0.588,0.587,0.586,0.585,0.584,0.582,0.581,0.581,0.583,0.585,0.585,0.588,0.591,0.594,0.596,0.599,0.6,0.601,0.602,0.602,0.602,0.602,0.602,0.602,0.602,0.601,0.6,0.6,0.6,0.599,0.599,0.598,0.598,0.598,0.598,0.598,0.598,0.598,0.597,0.598,0.598,0.599,0.599,0.601,0.602,0.603,0.604,0.606,0.608,0.61,0.611,0.613,0.615,0.616,0.618,0.619,0.619,0.62,0.62,0.62,0.621,0.621,0.621,0.621,0.622,0.622,0.623,0.624,0.625,0.626,0.628,0.63,0.631,0.634,0.635,0.638,0.639,0.641,0.642,0.644,0.645,0.646,0.647,0.647,0.647,0.647,0.646,0.645,0.645,0.644,0.644,0.643,0,0,0,0,0,0,0,0.769,0.769,0.767,0.767,0.767,0.767,0.766,0.766,0.766,0.767,0.768,0.77,0.772,0.774,0.777,0.78,0.783,0.786,0.788,0.79,0.792,0.794,0.795,0.796,0.797,0.798,0.799,0.801,0.802,0.804,0.806,0.808,0.811,0.813,0.815,0.817,0.818,0.82,0.822,0.823,0.823,0.824,0.825,0.825,0.826,0.827,0.828,0.828,0.829,0.829,0.83,0.831,0.831,0.832,0.832,0.833,0.834,0.836,0.837,0.84,0.841,0.844,0.846,0.849,0.852,0.855,0.858,0.861,0.864,0.866,0.869,0.871,0.872,0.873,0.874,0.875,0.875,0.875,0.876,0.877,0.877,0.878,0.879,0.88,0.88,0.882,0.883,0.884,0.885,0.887,0.888,0.89,0.892,0.893,0.895,0.897,0.899,0.9,0.902,0.905,0.908,0.91,0.911,0.913,0.914,0.915,0.916,0.916,0.917,0.917,0.917,0.917,0.918,0.919,0.92,0.92,0.92,0.921,0.921,0.921,0.923,0.924,0.925,0.924,0.924,0.925,0.926,0.927,0.927,0.929,0.929,0.93,0.932,0.933,0.934,0.934,0.935,0.935,0.935,0.938,0.939,0.942,0.944,0.946,0.949,0.952,0.955,0.955,0.958,0,0,0.975,0,0,0,0,0,0,0,0,0,0,0,0,0,0,0,1.106,1.108,1.112,1.113,1.117,1.119,1.122,1.124,1.126,1.127,1.129,1.131,1.131,1.131,1.132,1.133,0,0,1.133,1.133,1.133,1.133,1.133,1.133,1.133,1.133,1.132,1.132,1.131,1.131,1.13,1.13,1.129,1.129,1.127,1.127,1.126,1.126,1.125,1.125,1.125,1.124,1.124,1.124,1.123,1.124,1.124,1.123,1.123,1.123,1.123,1.122,1.122,1.121,1.121,1.121,1.121,1.122,1.123,1.124,1.124,1.125,1.127,1.129,1.13,1.131,1.131,1.132,1.132,1.133,1.133,1.134,1.134,1.134,1.134,1.134,1.134,1.135,1.137,1.137,1.138,1.138,1.139
0,0,0,0,0,0,0,0,0,0,0,0,0,0,0,0,0,0,0,0.623,0.622,0.62,0.618,0.616,0,0.61,0.606,0.602,0.598,0,0.593,0.589,0.587,0.585,0.584,0.582,0.58,0.579,0.577,0.575,0.574,0.572,0.57,0.569,0.567,0.565,0.562,0.56,0.557,0.555,0.552,0.551,0.548,0.546,0.545,0.543,0.541,0.54,0.539,0.538,0.538,0.537,0.537,0.537,0.537,0.537,0.537,0.536,0.536,0.536,0.536,0.535,0.535,0.535,0.535,0.535,0.535,0.535,0.535,0.536,0.537,0.537,0.538,0.539,0.54,0.54,0.541,0.542,0.542,0.543,0.544,0.544,0.544,0.545,0.545,0.545,0.546,0.546,0.547,0.548,0.549,0.549,0.55,0.551,0.552,0.552,0.553,0.554,0.554,0.555,0.555,0.555,0.555,0.556,0.556,0.556,0.556,0.556,0.556,0.556,0.556,0.557,0.558,0.559,0.559,0.56,0.561,0.563,0.566,0.568,0.569,0.57,0.571,0.572,0.573,0.573,0.572,0.572,0.572,0.572,0.572,0.572,0.572,0.572,0.572,0.573,0.573,0.573,0.573,0.574,0.574,0.574,0.575,0.575,0.575,0.575,0.575,0.575,0.575,0.576,0.576,0.576,0.576,0.576,0.576,0.576,0.576,0.576,0.576,0.576,0.576,0.576,0.577,0.577,0.577,0.578,0.578,0.579,0.58,0.581,0.582,0.583,0.584,0.585,0.585,0.586,0.586,0.587,0.587,0.588,0.588,0.588,0.588,0.587,0.586,0.585,0.583,0.582,0.581,0.581,0.583,0.584,0.586,0.588,0.591,0.594,0.597,0.6,0.601,0.602,0.603,0.604,0.604,0.604,0.604,0.604,0.603,0.603,0.602,0.602,0.601,0.601,0.6,0.6,0.6,0.599,0.599,0.599,0.599,0.599,0.599,0.599,0.6,0.6,0.601,0.602,0.603,0.604,0.605,0.607,0.609,0.611,0.612,0.614,0.616,0.617,0.619,0.62,0.62,0.621,0.621,0.621,0.622,0.622,0.622,0.622,0.622,0.623,0.624,0.625,0.626,0.628,0.629,0.631,0.633,0.635,0.637,0.639,0.64,0.642,0.643,0.645,0.646,0.647,0.647,0.647,0.648,0.647,0.647,0.646,0.645,0.645,0.645,0.644,0.643,0,0,0,0,0,0,0.767,0.765,0.766,0.766,0.766,0.766,0.765,0.766,0.766,0.767,0.769,0.77,0.773,0.775,0.778,0.781,0.784,0.787,0.789,0.791,0.793,0.794,0.795,0.796,0.797,0.798,0.8,0.802,0.804,0.805,0.808,0.81,0.812,0.814,0.816,0.817,0.818,0.82,0.822,0.822,0.823,0.824,0.825,0.825,0.826,0.827,0.828,0.828,0.828,0.829,0.83,0.83,0.831,0.831,0.832,0.833,0.835,0.837,0.838,0.841,0.843,0.845,0.848,0.851,0.853,0.856,0.86,0.862,0.865,0.867,0.869,0.871,0.873,0.874,0.875,0.876,0.876,0.877,0.877,0.878,0.879,0.88,0.88,0.881,0.882,0.882,0.883,0.884,0.885,0.887,0.889,0.89,0.892,0.894,0.897,0.899,0.9,0.902,0.905,0.907,0.909,0.911,0.913,0.914,0.915,0.917,0.917,0.917,0.918,0.919,0.919,0.92,0.92,0.922,0.923,0.924,0.924,0.924,0.925,0.925,0.926,0.927,0.927,0.928,0.928,0.929,0.93,0.93,0.931,0.933,0.933,0.934,0.935,0.936,0.937,0.938,0.939,0.939,0.941,0.943,0.944,0.946,0.95,0.952,0.954,0.957,0.96,0.963,0.963,0,0,0,0,0,0,0,0,0,0,0,0,0,0,0,0,0,1.101,1.105,1.108,1.11,1.112,1.116,1.118,1.122,1.124,1.126,1.127,1.13,1.131,1.131,1.131,1.132,1.132,0,0,1.133,1.133,1.133,1.133,1.133,1.133,1.133,1.132,1.132,1.131,1.131,1.13,1.13,1.13,1.129,1.129,1.127,1.126,1.126,1.126,1.125,1.125,1.125,1.124,1.124,1.124,1.124,1.124,1.124,1.123,1.123,1.122,1.122,1.122,1.121,1.121,1.121,1.121,1.121,1.122,1.123,1.123,1.124,1.125,1.126,1.127,1.129,1.129,1.13,1.13,1.131,1.131,1.132,1.132,1.132,1.133,1.133,1.133,1.134,1.134,1.135,1.135,1.137,1.137,1.138
0,0,0,0,0,0,0,0,0,0,0,0,0,0,0,0,0,0,0,0.622,0.621,0.62,0.618,0.616,0.614,0.612,0.608,0.604,0.6,0,0.594,0.591,0.589,0.586,0.585,0.583,0.581,0.58,0.578,0.576,0.575,0.573,0.571,0.569,0.567,0.565,0.563,0.561,0.558,0.555,0.553,0.551,0.549,0.547,0.545,0.543,0.541,0.54,0.539,0.538,0.537,0.537,0.537,0.537,0.537,0.536,0.536,0.536,0.536,0.536,0.536,0.536,0.535,0.536,0.535,0.535,0.535,0.536,0.536,0.537,0.537,0.538,0.539,0.54,0.54,0.541,0.542,0.542,0.543,0.544,0.544,0.545,0.545,0.546,0.546,0.546,0.547,0.548,0.549,0.549,0.55,0.551,0.552,0.552,0.553,0.554,0.554,0.555,0.555,0.555,0.556,0.556,0.556,0.556,0.556,0.556,0.556,0.556,0.556,0.556,0.556,0.557,0.557,0.557,0.558,0.558,0.559,0.562,0.564,0.566,0.567,0.569,0.57,0.571,0.573,0.572,0.572,0.572,0.572,0.572,0.572,0.572,0.572,0.572,0.573,0.573,0.573,0.573,0.574,0.574,0.574,0.574,0.575,0.575,0.575,0.575,0.575,0.575,0.576,0.576,0.576,0.576,0.576,0.576,0.576,0.577,0.577,0.577,0.576,0.576,0.577,0.577,0.577,0.577,0.577,0.578,0.579,0.579,0.58,0.581,0.582,0.583,0.584,0.585,0.585,0.586,0.586,0.587,0.587,0.588,0.588,0.588,0.587,0.586,0.585,0.584,0.582,0.581,0.58,0.58,0.582,0.583,0.585,0.588,0.591,0.595,0.598,0.601,0.602,0.603,0.604,0.605,0.605,0.605,0.605,0.605,0.605,0.604,0.603,0.603,0.602,0.602,0.602,0.601,0.601,0.601,0.601,0.601,0.601,0.601,0.601,0.601,0.601,0.602,0.602,0.603,0.604,0.605,0.606,0.608,0.609,0.611,0.613,0.615,0.616,0.618,0.619,0.62,0.621,0.622,0.622,0.622,0.622,0.622,0.622,0.622,0.623,0.624,0.625,0.626,0.627,0.629,0.631,0.633,0.635,0.637,0.638,0.64,0.642,0.643,0.644,0.645,0.647,0.647,0.648,0.648,0.648,0.648,0.647,0.647,0.646,0.646,0.645,0.644,0.643,0,0,0,0,0,0,0,0,0.764,0.764,0.764,0.765,0.765,0.765,0.766,0.767,0.769,0.771,0.774,0.776,0.779,0.782,0.785,0.788,0.789,0.792,0.793,0.794,0.796,0.797,0.798,0.8,0.801,0.803,0.805,0.807,0.809,0.811,0.813,0.815,0.816,0.817,0.818,0.82,0.822,0.823,0.823,0.824,0.825,0.825,0.826,0.827,0.828,0.828,0.828,0.828,0.829,0.83,0.831,0.831,0.832,0.833,0.836,0.838,0.84,0.842,0.844,0.847,0.85,0.852,0.854,0.857,0.86,0.862,0.865,0.868,0.87,0.872,0.873,0.875,0.876,0.877,0.877,0.877,0.878,0.879,0.88,0.88,0.881,0.882,0.882,0.883,0.884,0.885,0.887,0.888,0.889,0.892,0.894,0.896,0.899,0.901,0.902,0.905,0.907,0.908,0.911,0.913,0.914,0.916,0.917,0.917,0.918,0.918,0.919,0.92,0.92,0.921,0.923,0.924,0.925,0.926,0.926,0.927,0.927,0.928,0.928,0.929,0.93,0.93,0.931,0.932,0.933,0.934,0.935,0.936,0.936,0.936,0.938,0.938,0.94,0.941,0.942,0.944,0.946,0.947,0.949,0.951,0.953,0.955,0.956,0.959,0.962,0.965,0.968,0.97,0.975,0.979,0.985,0.991,0.994,0.995,0.999,0,0,0,0,0,0,0,0,0,1.101,1.104,1.107,1.109,1.112,1.115,1.117,1.121,1.124,1.126,1.127,1.129,1.13,1.13,1.131,1.131,1.132,0,0,0,1.133,1.133,1.133,1.133,1.132,1.132,1.132,1.131,1.131,1.13,1.13,1.129,1.129,1.127,1.127,1.126,1.126,1.125,1.126,1.125,1.125,1.125,1.124,1.124,1.123,1.123,1.123,1.123,1.123,1.123,1.122,1.122,1.122,1.121,1.121,1.119,1.121,1.121,1.121,1.122,1.122,1.123,1.124,1.125,1.125,1.126,1.127,1.127,1.129,1.129,1.13,1.13,1.131,1.131,1.132,1.132,1.133,1.133,1.134,1.134,1.135,1.135,1.137,1.137
0,0,0,0,0,0,0,0,0,0,0,0,0,0,0,0,0,0,0,0,0.621,0.62,0.619,0.617,0.615,0.612,0.609,0.605,0.601,0.598,0.595,0.592,0.589,0.587,0.585,0.583,0.582,0.58,0.578,0.577,0.575,0.574,0.572,0.57,0.568,0.565,0.563,0.561,0.559,0.556,0.554,0.552,0.549,0.547,0.545,0.543,0.541,0.54,0.539,0.538,0.537,0.537,0.537,0.537,0.537,0.536,0.537,0.537,0.536,0.536,0.536,0.536,0.536,0.536,0.536,0.536,0.536,0.537,0.537,0.538,0.538,0.539,0.54,0.54,0.541,0.542,0.542,0.543,0.544,0.545,0.545,0.546,0.546,0.547,0.547,0.548,0.549,0.549,0.55,0.551,0.551,0.552,0.553,0.554,0.554,0.555,0.555,0.556,0.556,0.556,0.557,0.557,0.557,0.557,0.556,0.556,0.556,0.556,0.556,0.556,0.556,0.556,0.556,0.556,0.557,0.557,0.558,0.56,0.562,0.564,0.566,0.567,0.568,0.57,0.572,0.572,0.572,0.572,0.572,0.572,0.572,0.572,0.572,0.573,0.573,0.573,0.573,0.573,0.574,0.574,0.574,0.575,0.575,0.575,0.575,0.576,0.575,0.576,0.576,0.576,0.576,0.576,0.576,0.576,0.577,0.577,0.577,0.577,0.577,0.577,0.577,0.577,0.577,0.577,0.577,0.578,0.579,0.58,0.58,0.581,0.582,0.583,0.584,0.585,0.585,0.585,0.586,0.586,0.587,0.587,0.587,0.587,0.586,0.585,0.584,0.582,0.581,0.58,0.579,0.579,0.581,0.583,0.585,0.587,0.591,0.595,0.598,0.601,0.603,0.604,0.605,0.606,0.606,0.606,0.606,0.606,0.605,0.605,0.604,0.604,0.604,0.603,0.603,0.603,0.603,0.603,0.603,0.603,0.603,0.603,0.602,0.602,0.602,0.603,0.604,0.605,0.605,0.606,0.607,0.609,0.61,0.612,0.614,0.616,0.617,0.618,0.62,0.621,0.622,0.623,0.623,0.623,0.623,0.623,0.623,0.623,0.624,0.625,0.626,0.627,0.628,0.63,0.632,0.634,0.636,0.638,0.64,0.641,0.643,0.644,0.645,0.647,0.647,0.648,0.648,0.649,0.649,0.648,0.648,0.647,0.647,0.646,0.645,0.644,0.643,0,0,0,0,0,0,0,0,0.763,0.763,0.763,0.764,0.764,0.765,0.766,0.767,0.77,0.772,0.775,0.778,0.78,0.783,0.786,0.789,0.79,0.793,0.794,0.796,0.796,0.798,0.799,0.8,0.802,0.804,0.806,0.808,0.81,0.812,0.814,0.815,0.817,0.818,0.819,0.82,0.822,0.823,0.823,0.824,0.825,0.826,0.827,0.827,0.828,0.828,0.828,0.828,0.83,0.83,0.831,0.831,0.833,0.834,0.836,0.84,0.841,0.843,0.846,0.849,0.851,0.854,0.856,0.858,0.861,0.863,0.865,0.867,0.869,0.871,0.873,0.875,0.876,0.877,0.877,0.878,0.879,0.88,0.88,0.881,0.882,0.882,0.882,0.883,0.884,0.885,0.887,0.888,0.889,0.892,0.894,0.897,0.9,0.902,0.904,0.905,0.908,0.909,0.911,0.913,0.914,0.916,0.917,0.918,0.919,0.92,0.92,0.92,0.921,0.922,0.924,0.925,0.926,0.927,0.927,0.928,0.928,0.929,0.93,0.93,0.931,0.933,0.934,0.935,0.936,0.937,0.938,0.938,0.939,0.939,0.94,0.941,0.942,0.944,0.946,0.947,0.949,0.95,0.953,0.955,0.956,0.957,0.959,0.96,0.964,0.966,0.969,0.973,0.977,0.982,0.986,0.991,0.995,0.997,1.001,1.005,1.007,1.013,1.019,1.029,0,0,0,0,0,1.104,1.106,1.108,1.112,1.115,1.117,1.119,1.123,1.126,1.127,1.13,1.13,1.13,1.13,1.131,1.131,1.132,1.132,1.133,1.133,1.133,1.133,1.132,1.132,1.132,1.132,1.131,1.13,1.13,1.13,1.129,1.129,1.127,1.127,1.126,1.125,1.126,1.125,1.125,1.125,1.125,1.125,1.124,1.124,1.124,1.123,1.123,1.122,1.122,1.122,1.122,1.122,1.121,1.121,1.119,1.119,1.121,1.121,1.122,1.122,1.122,1.123,1.124,1.125,1.126,1.125,1.126,1.126,1.127,1.127,1.129,1.13,1.13,1.131,1.131,1.132,1.132,1.133,1.133,1.134,1.134,1.135,1.135
0,0,0,0,0,0,0,0,0,0,0,0,0,0,0,0,0,0,0,0,0,0.619,0.618,0.617,0.615,0.613,0.609,0.606,0.602,0.599,0.595,0.592,0.589,0.587,0.585,0.584,0.582,0.581,0.579,0.577,0.576,0.574,0.572,0.57,0.568,0.566,0.564,0.562,0,0.557,0.554,0.552,0.55,0.548,0.545,0.544,0.542,0.54,0.539,0.538,0.537,0.537,0.537,0.537,0.537,0.537,0.537,0.537,0.537,0.537,0.537,0.537,0.537,0.537,0.537,0.537,0.537,0.538,0.538,0.539,0.539,0.54,0.541,0.541,0.542,0.543,0.544,0.544,0.545,0.545,0.546,0.546,0.547,0.548,0.549,0.549,0.55,0.551,0.551,0.552,0.553,0.554,0.554,0.555,0.555,0.556,0.556,0.557,0.557,0.557,0.557,0.557,0.557,0.557,0.557,0.557,0.556,0.556,0.556,0.556,0.555,0.556,0.556,0.556,0.556,0.557,0.558,0.559,0.561,0.563,0.564,0.566,0.567,0.569,0.57,0.571,0.571,0.571,0.572,0.572,0.572,0.573,0.573,0.573,0.573,0.573,0.573,0.573,0.574,0.574,0.574,0.575,0.575,0.575,0.576,0.576,0.576,0.576,0.576,0.577,0.577,0.577,0.577,0.577,0.577,0.577,0.577,0.577,0.577,0.577,0.577,0.577,0.577,0.577,0.578,0.578,0.579,0.58,0.581,0.581,0.582,0.583,0.583,0.584,0.584,0.585,0.585,0.585,0.585,0.585,0.586,0.585,0.584,0.583,0.582,0.58,0.579,0.578,0.577,0.577,0.579,0.582,0.584,0.587,0.591,0.595,0.599,0.602,0.603,0.604,0.605,0.606,0.606,0.607,0.607,0.607,0.606,0.606,0.606,0.605,0.605,0.605,0.605,0.605,0.605,0.605,0.605,0.605,0.604,0.604,0.604,0.604,0.604,0.604,0.605,0.606,0.607,0.608,0.609,0.61,0.611,0.613,0.615,0.616,0.618,0.619,0.62,0.622,0.622,0.623,0.623,0.623,0.623,0.623,0.624,0.624,0.625,0.626,0.627,0.628,0.63,0.631,0.633,0.635,0.637,0.639,0.641,0.643,0.644,0.645,0.646,0.648,0.648,0.649,0.649,0.65,0.649,0.649,0.648,0.648,0.647,0.646,0.645,0.644,0,0,0,0,0,0,0,0,0,0.762,0.762,0.763,0.763,0.764,0.765,0.766,0.768,0.771,0.773,0.776,0.779,0.782,0.784,0.787,0.79,0.792,0.793,0.794,0.796,0.797,0.798,0.799,0.801,0.802,0.804,0.807,0.808,0.81,0.812,0.815,0.817,0.818,0.819,0.82,0.821,0.822,0.823,0.824,0.825,0.826,0.826,0.827,0.828,0.828,0.828,0.828,0.829,0.83,0.831,0.831,0.832,0.834,0.836,0.838,0.841,0.843,0.846,0.849,0.851,0.853,0.855,0.857,0.859,0.861,0.863,0.865,0.867,0.869,0.871,0.873,0.875,0.876,0.877,0.877,0.878,0.879,0.88,0.881,0.882,0.882,0.882,0.883,0.884,0.884,0.886,0.887,0.889,0.891,0.893,0.895,0.898,0.901,0.903,0.905,0.907,0.908,0.91,0.912,0.914,0.915,0.916,0.917,0.918,0.919,0.92,0.92,0.921,0.921,0.922,0.924,0.925,0.926,0.927,0.927,0.928,0.929,0.93,0.93,0.931,0.932,0.933,0.934,0.936,0.938,0.938,0.939,0.941,0.94,0.941,0.942,0.943,0.944,0.946,0.947,0.949,0.951,0.952,0.955,0.956,0.959,0.959,0.96,0.963,0.966,0.969,0.972,0.976,0.98,0.984,0.989,0.993,0.996,0.998,1.002,1.006,1.008,1.017,1.023,1.034,0,0,0,0,0,0,1.105,1.107,1.109,1.114,1.116,1.119,1.123,1.125,1.127,1.13,1.13,1.13,1.13,1.13,1.13,1.131,1.132,1.132,1.133,1.132,1.132,1.132,1.132,1.132,1.131,1.13,1.129,1.129,1.129,1.129,1.127,1.127,1.126,1.126,1.125,1.125,1.125,1.125,1.125,1.124,1.124,1.124,1.124,1.124,1.123,1.122,1.122,1.122,1.121,1.121,1.121,1.121,1.121,1.119,1.119,1.121,1.122,1.122,1.122,1.122,1.122,1.123,1.124,1.125,1.124,1.124,1.125,1.126,1.126,1.127,1.129,1.129,1.13,1.13,1.131,1.132,1.132,1.133,1.133,1.133,1.133,1.134
0,0,0,0,0,0,0,0,0,0,0,0,0,0,0,0,0,0,0,0,0.619,0.618,0.617,0.616,0.614,0.611,0.609,0.605,0.602,0.598,0.595,0.592,0.589,0.587,0.585,0.584,0.583,0.581,0.58,0.578,0.576,0.575,0.573,0.571,0.569,0.567,0.565,0.563,0.56,0.557,0.555,0.553,0.55,0.548,0.546,0.544,0.542,0.541,0.54,0.538,0.538,0.537,0.537,0.537,0.537,0.537,0.537,0.537,0.537,0.537,0.538,0.538,0.538,0.538,0.538,0.538,0.538,0.539,0.539,0.54,0.54,0.541,0.542,0.542,0.543,0.544,0.544,0.545,0.545,0.546,0.547,0.548,0.548,0.549,0.549,0.55,0.551,0.552,0.552,0.554,0.554,0.555,0.555,0.556,0.557,0.557,0.557,0.558,0.558,0.558,0.558,0.557,0.557,0.557,0.557,0.557,0.556,0.556,0.556,0.556,0.555,0.555,0.556,0.556,0.556,0.556,0.557,0.558,0.56,0.562,0.563,0.564,0.566,0.568,0.569,0.57,0.571,0.571,0.572,0.572,0.572,0.573,0.573,0.573,0.573,0.573,0.573,0.574,0.574,0.574,0.574,0.575,0.575,0.576,0.576,0.576,0.576,0.576,0.577,0.577,0.577,0.577,0.577,0.577,0.577,0.577,0.577,0.577,0.577,0.577,0.577,0.577,0.577,0.578,0.578,0.578,0.579,0.58,0.581,0.581,0.582,0.582,0.583,0.583,0.584,0.584,0.584,0.584,0.584,0.585,0.585,0.584,0.583,0.582,0.581,0.579,0.577,0.577,0.576,0.577,0.579,0.581,0.584,0.587,0.591,0.595,0.599,0.603,0.604,0.605,0.606,0.606,0.607,0.607,0.607,0.607,0.607,0.607,0.607,0.606,0.606,0.606,0.606,0.606,0.606,0.606,0.606,0.606,0.606,0.606,0.605,0.605,0.605,0.606,0.607,0.608,0.608,0.609,0.61,0.612,0.612,0.614,0.616,0.617,0.618,0.619,0.62,0.622,0.623,0.623,0.624,0.624,0.624,0.624,0.624,0.625,0.626,0.627,0.628,0.629,0.631,0.633,0.634,0.637,0.638,0.64,0.642,0.644,0.645,0.647,0.648,0.649,0.65,0.65,0.65,0.65,0.65,0.65,0.649,0.648,0.647,0.647,0.646,0,0,0,0,0,0,0,0,0.759,0.761,0.762,0.761,0.762,0.762,0.763,0.765,0.766,0.769,0.771,0.774,0.778,0.78,0.783,0.785,0.788,0.79,0.792,0.794,0.795,0.796,0.797,0.798,0.799,0.801,0.802,0.804,0.806,0.808,0.81,0.812,0.815,0.817,0.818,0.819,0.82,0.822,0.823,0.823,0.824,0.825,0.826,0.827,0.828,0.828,0.828,0.829,0.829,0.83,0.831,0.831,0.832,0.834,0.836,0.838,0.84,0.843,0.845,0.848,0.851,0.852,0.855,0.856,0.858,0.86,0.862,0.864,0.865,0.866,0.869,0.871,0.873,0.875,0.875,0.877,0.877,0.878,0.88,0.88,0.88,0.882,0.882,0.883,0.884,0.884,0.885,0.887,0.888,0.89,0.892,0.894,0.896,0.899,0.902,0.903,0.905,0.907,0.908,0.91,0.911,0.914,0.914,0.916,0.917,0.917,0.919,0.92,0.92,0.92,0.922,0.923,0.924,0.925,0.926,0.927,0.927,0.928,0.929,0.93,0.93,0.93,0.932,0.934,0.934,0.937,0.938,0.939,0.941,0.942,0.942,0.942,0.943,0.944,0.946,0.946,0.949,0.95,0.951,0.954,0.955,0.958,0.959,0.961,0.963,0.965,0.969,0.972,0.976,0.979,0.983,0.987,0.99,0.994,0.997,0.999,1.003,1.007,1.01,1.017,1.023,0,0,0,0,0,1.096,1.103,1.104,1.107,1.109,1.114,1.116,1.119,1.123,1.125,1.127,1.129,1.13,1.13,1.13,1.13,1.13,1.131,1.132,1.133,1.133,1.133,1.132,1.132,1.131,1.131,1.13,1.13,1.129,1.127,1.127,1.127,1.127,1.126,1.126,1.126,1.125,1.125,1.125,1.125,1.124,1.124,1.124,1.124,1.124,1.123,1.122,1.122,1.121,1.121,1.121,1.121,1.121,1.121,1.121,1.119,1.119,1.121,1.121,1.122,1.121,1.121,1.121,1.122,1.123,1.124,1.123,1.123,1.124,1.125,1.125,1.126,1.127,1.127,1.127,1.129,1.13,1.131,1.131,1.132,1.132,1.132,1.132,1.132
0,0,0,0,0,0,0,0,0,0,0,0,0,0,0,0,0,0,0,0,0,0.616,0.615,0.614,0.612,0.61,0.607,0.604,0.6,0.597,0.594,0.592,0.589,0.587,0.586,0.584,0.583,0.581,0.58,0.578,0.577,0.575,0.573,0.571,0.569,0.567,0.565,0.563,0.561,0.558,0.556,0.553,0.551,0.549,0.547,0.545,0.543,0.542,0.54,0.539,0.538,0.538,0.538,0.537,0.537,0.537,0.537,0.538,0.538,0.538,0.538,0.538,0.538,0.539,0.539,0.539,0.54,0.54,0.54,0.541,0.541,0.542,0.542,0.543,0.544,0.544,0.545,0.545,0.546,0.547,0.547,0.548,0.549,0.55,0.551,0.551,0.552,0.553,0.554,0.554,0.555,0.556,0.556,0.557,0.557,0.558,0.558,0.558,0.558,0.558,0.558,0.558,0.557,0.557,0.557,0.557,0.556,0.556,0.556,0.555,0.555,0.555,0.555,0.555,0.556,0.556,0.557,0.558,0.559,0.561,0.562,0.563,0.565,0.567,0.568,0.569,0.57,0.571,0.572,0.572,0.573,0.573,0.573,0.573,0.573,0.573,0.574,0.573,0.574,0.574,0.574,0.575,0.575,0.576,0.576,0.576,0.576,0.576,0.577,0.577,0.577,0.577,0.577,0.577,0.577,0.577,0.577,0.577,0.577,0.577,0.578,0.578,0.578,0.578,0.578,0.579,0.579,0.58,0.581,0.581,0.582,0.582,0.582,0.583,0.583,0.583,0.583,0.583,0.583,0.583,0.583,0.582,0.581,0.581,0.579,0.578,0.577,0.576,0.575,0.576,0.578,0.581,0.584,0.588,0.592,0.596,0.601,0.603,0.604,0.606,0.606,0.607,0.607,0.608,0.608,0.608,0.608,0.608,0.608,0.608,0.608,0.608,0.608,0.608,0.608,0.607,0.607,0.607,0.607,0.607,0.606,0.606,0.607,0.607,0.608,0.609,0.61,0.611,0.612,0.613,0.614,0.615,0.617,0.618,0.619,0.62,0.621,0.622,0.623,0.624,0.624,0.624,0.624,0.625,0.625,0.626,0.627,0.628,0.629,0.63,0.632,0.634,0.635,0.637,0.639,0.641,0.643,0.645,0.646,0.648,0.649,0.65,0.65,0.651,0.651,0.651,0.651,0.651,0.65,0,0,0,0,0,0,0,0,0,0.755,0,0,0.758,0.761,0.761,0.761,0.762,0.762,0.763,0.764,0.766,0.769,0.771,0.775,0.778,0.782,0.784,0.786,0.789,0.791,0.793,0.794,0.796,0.796,0.797,0.798,0.8,0.801,0.802,0.804,0.807,0.808,0.811,0.812,0.815,0.817,0.818,0.82,0.821,0.822,0.823,0.823,0.825,0.825,0.826,0.827,0.828,0.829,0.829,0.829,0.83,0.831,0.831,0.833,0.834,0.835,0.837,0.84,0.842,0.845,0.847,0.85,0.852,0.854,0.856,0.858,0.859,0.861,0.862,0.864,0.865,0.866,0.869,0.871,0.873,0.874,0.875,0.876,0.877,0.878,0.879,0.88,0.881,0.882,0.882,0.883,0.884,0.884,0.886,0.887,0.889,0.89,0.892,0.894,0.897,0.899,0.902,0.904,0.905,0.907,0.908,0.91,0.911,0.913,0.914,0.915,0.916,0.917,0.918,0.919,0.92,0.92,0.921,0.922,0.924,0.924,0.926,0.927,0.927,0.928,0.929,0.93,0.93,0.931,0.932,0.934,0.935,0.937,0.938,0.94,0.942,0.942,0.943,0.943,0.944,0.946,0.946,0.947,0.949,0.95,0.952,0.954,0.956,0.959,0.96,0.962,0.965,0.968,0.97,0.975,0.978,0.982,0.985,0.989,0.991,0.995,0.997,1,1.004,1.007,1.01,1.018,1.023,1.033,0,1.058,0,1.085,1.096,1.103,1.105,1.108,1.112,1.114,1.116,1.119,1.123,1.125,1.127,1.129,1.129,1.127,1.127,1.127,1.129,1.13,1.131,1.132,1.132,1.132,1.131,1.131,1.131,1.13,1.13,1.129,1.127,1.127,1.126,1.127,1.127,1.126,1.126,1.125,1.125,1.125,1.124,1.124,1.124,1.124,1.124,1.123,1.123,1.123,1.122,1.122,1.121,1.121,1.121,1.121,1.121,1.121,1.121,1.119,1.119,1.121,1.121,1.121,1.121,1.121,1.121,1.122,1.122,1.123,1.123,1.123,1.123,1.124,1.124,1.125,1.125,1.126,1.126,1.127,1.129,1.13,1.13,1.131,1.131,1.13,1.131,1.131
0,0,0,0,0,0,0,0,0,0,0,0,0,0,0,0,0,0,0,0,0,0,0.613,0.612,0.61,0.608,0.605,0.602,0.599,0.595,0.593,0,0.589,0.587,0.586,0.584,0.583,0.582,0.58,0.579,0.577,0.575,0.574,0.572,0.57,0.568,0.566,0.564,0.561,0.559,0.557,0.554,0.552,0.55,0.548,0.546,0.544,0.542,0.541,0.54,0.539,0.539,0.538,0.538,0.538,0.538,0.538,0.538,0.538,0.539,0.539,0.539,0.54,0.54,0.54,0.54,0.541,0.541,0.541,0.542,0.542,0.543,0.543,0.544,0.544,0.545,0.545,0.546,0.546,0.547,0.548,0.549,0.549,0.55,0.551,0.552,0.553,0.554,0.554,0.555,0.556,0.557,0.557,0.557,0.558,0.558,0.559,0.559,0.559,0.559,0.558,0.558,0.558,0.557,0.557,0.557,0.556,0.556,0.556,0.555,0.555,0.555,0.555,0.555,0.555,0.556,0.556,0.557,0.559,0.56,0.561,0.562,0.564,0.565,0.567,0.569,0.57,0.571,0.572,0.572,0.573,0.573,0.573,0.573,0.573,0.574,0.574,0.574,0.574,0.574,0.575,0.575,0.576,0.576,0.576,0.576,0.576,0.577,0.577,0.577,0.577,0.577,0.577,0.577,0.577,0.577,0.578,0.578,0.578,0.578,0.578,0.578,0.578,0.578,0.578,0.579,0.579,0.58,0.581,0.581,0.582,0.582,0.582,0.582,0.582,0.582,0.582,0.582,0.582,0.582,0.582,0.581,0.58,0.579,0.578,0.577,0.576,0.575,0.574,0.575,0.578,0.581,0.583,0.587,0.592,0.597,0.601,0.604,0.605,0.606,0.607,0.608,0.608,0.609,0.608,0.609,0.609,0.609,0.609,0.609,0.609,0.609,0.609,0.609,0.609,0.608,0.608,0.608,0.608,0.608,0.608,0.608,0.608,0.608,0.61,0.611,0.612,0.613,0.614,0.614,0.615,0.617,0.618,0.619,0.62,0.621,0.622,0.623,0.624,0.624,0.625,0.625,0.625,0.625,0.626,0.627,0.628,0.629,0.63,0.631,0.633,0.635,0.637,0.638,0.64,0.642,0.644,0.646,0.647,0.649,0.65,0.651,0.652,0.652,0.652,0.652,0.652,0.652,0.652,0,0,0,0,0,0,0,0,0,0.759,0.76,0.76,0.76,0.761,0.761,0.761,0.762,0.762,0.763,0.765,0.766,0.769,0.772,0.776,0.779,0.782,0.784,0.787,0.79,0.792,0.794,0.795,0.796,0.797,0.798,0.799,0.8,0.801,0.803,0.805,0.807,0.809,0.811,0.813,0.815,0.817,0.819,0.82,0.822,0.823,0.823,0.824,0.825,0.825,0.826,0.827,0.828,0.829,0.829,0.83,0.83,0.831,0.833,0.833,0.835,0.836,0.839,0.841,0.844,0.847,0.849,0.852,0.854,0.856,0.858,0.859,0.86,0.862,0.863,0.864,0.865,0.866,0.869,0.87,0.872,0.873,0.875,0.875,0.877,0.877,0.879,0.88,0.88,0.881,0.882,0.882,0.884,0.884,0.886,0.887,0.889,0.891,0.893,0.895,0.897,0.9,0.902,0.904,0.905,0.907,0.908,0.91,0.911,0.912,0.914,0.914,0.916,0.917,0.917,0.918,0.919,0.92,0.921,0.922,0.924,0.924,0.925,0.927,0.927,0.928,0.929,0.93,0.93,0.93,0.932,0.934,0.935,0.937,0.938,0.94,0.942,0.943,0.944,0.944,0.946,0.946,0.947,0.948,0.95,0.95,0.952,0.954,0.956,0.959,0.961,0.964,0.965,0.969,0.973,0.976,0.981,0.983,0.987,0.99,0.993,0.997,0.999,1.001,1.006,1.008,1.012,1.018,1.024,1.033,1.043,1.056,1.071,1.083,1.095,1.102,1.105,1.108,1.113,1.115,1.117,1.119,1.123,1.125,0,1.127,1.129,1.127,1.127,1.127,1.129,1.129,1.131,1.131,1.131,1.132,1.131,1.131,1.13,1.13,1.129,1.127,1.126,1.126,1.126,1.126,1.126,1.126,1.125,1.125,1.125,1.124,1.124,1.124,1.123,1.123,1.123,1.123,1.123,1.123,1.122,1.121,1.121,1.121,1.121,1.121,1.119,1.119,1.119,1.119,1.119,1.119,1.121,1.121,1.119,1.119,1.119,1.121,1.122,1.122,1.122,1.122,1.122,1.123,1.123,1.124,1.124,1.124,1.125,1.125,1.126,1.127,1.129,1.129,1.129,1.129,1.13,1.13
0,0,0,0,0,0,0,0,0,0,0,0,0,0,0,0,0,0,0,0,0,0,0.61,0.609,0.607,0.605,0.602,0,0.596,0.593,0.591,0.589,0.588,0.586,0.585,0.584,0.583,0.582,0.581,0.579,0.577,0.576,0.574,0.572,0.57,0.568,0.566,0.564,0.562,0.56,0.557,0.555,0.553,0.551,0.549,0.547,0.545,0.544,0.542,0.541,0.54,0.54,0.539,0.539,0.539,0.539,0.539,0.539,0.539,0.54,0.54,0.54,0.54,0.541,0.541,0.541,0.542,0.542,0.542,0.542,0.543,0.543,0.544,0.544,0.545,0.545,0.546,0.546,0.547,0.548,0.548,0.549,0.55,0.551,0.552,0.552,0.554,0.554,0.555,0.556,0.556,0.557,0.557,0.558,0.558,0.558,0.558,0.559,0.559,0.558,0.558,0.558,0.557,0.557,0.557,0.557,0.556,0.556,0.556,0.555,0.555,0.555,0.555,0.555,0.555,0.556,0.556,0.557,0.558,0.559,0.56,0.561,0.563,0.565,0.567,0.568,0.569,0.571,0.572,0.573,0.573,0.573,0.573,0.573,0.574,0.574,0.574,0.574,0.574,0.575,0.575,0.575,0.576,0.576,0.577,0.576,0.577,0.577,0.577,0.577,0.577,0.577,0.577,0.577,0.577,0.578,0.578,0.578,0.578,0.578,0.578,0.578,0.578,0.578,0.579,0.579,0.58,0.58,0.581,0.581,0.581,0.581,0.581,0.581,0.581,0.581,0.581,0.581,0.581,0.581,0.581,0.58,0.579,0.578,0.577,0.576,0.575,0.574,0.574,0.576,0.579,0.581,0.585,0.589,0.594,0.599,0.603,0.605,0.606,0.607,0.608,0.608,0.609,0.609,0.609,0.609,0.61,0.61,0.61,0.61,0.61,0.61,0.61,0.61,0.61,0.609,0.609,0.609,0.609,0.609,0.608,0.608,0.609,0.61,0.611,0.612,0.613,0.614,0.615,0.616,0.617,0.618,0.619,0.62,0.621,0.622,0.623,0.624,0.624,0.625,0.625,0.625,0.626,0.626,0.627,0.628,0.629,0.63,0.631,0.633,0.634,0.635,0.637,0.639,0.641,0.643,0.645,0.647,0.648,0.65,0.651,0.652,0.652,0.653,0.653,0.653,0.653,0.652,0.652,0,0,0,0,0,0,0,0,0.762,0.762,0.762,0.762,0.761,0.761,0.761,0.761,0.761,0.762,0.763,0.764,0.766,0.769,0.772,0.776,0.779,0.782,0.784,0.787,0.79,0.793,0.794,0.796,0.797,0.798,0.798,0.8,0.801,0.802,0.804,0.806,0.808,0.81,0.812,0.814,0.817,0.818,0.82,0.821,0.822,0.823,0.824,0.824,0.825,0.825,0.826,0.827,0.828,0.828,0.829,0.83,0.83,0.832,0.833,0.834,0.836,0.838,0.84,0.843,0.845,0.848,0.85,0.852,0.855,0.856,0.858,0.859,0.861,0.862,0.864,0.865,0.866,0.866,0.869,0.87,0.871,0.873,0.874,0.875,0.876,0.877,0.878,0.879,0.88,0.88,0.882,0.882,0.884,0.885,0.887,0.888,0.89,0.892,0.894,0.896,0.897,0.9,0.902,0.904,0.905,0.907,0.908,0.91,0.911,0.912,0.913,0.914,0.915,0.916,0.917,0.917,0.919,0.92,0.92,0.921,0.924,0.924,0.925,0.927,0.927,0.928,0.929,0.93,0.93,0.93,0.932,0.933,0.935,0.936,0.938,0.941,0.942,0.943,0.944,0.945,0.946,0.947,0.948,0.949,0.95,0.95,0.952,0.954,0.956,0.959,0.961,0.963,0.966,0.97,0.974,0.978,0.982,0.985,0.989,0.991,0.994,0.997,1,1.002,1.006,1.009,1.013,1.02,1.026,1.035,1.044,1.056,1.071,1.083,1.093,1.101,1.105,1.109,1.113,1.116,1.118,1.119,1.123,1.124,1.126,1.127,1.127,1.127,1.127,1.127,1.127,1.129,1.13,1.13,1.131,1.131,1.13,1.13,1.13,1.129,1.129,1.127,1.126,1.126,1.126,1.126,1.126,1.126,1.125,1.124,1.124,1.124,1.124,1.123,1.123,1.123,1.123,1.123,1.123,1.123,1.122,1.121,1.121,1.121,1.121,1.119,1.119,1.119,1.119,1.118,1.118,1.119,1.119,1.119,1.118,1.118,1.119,1.119,1.121,1.121,1.121,1.121,1.121,1.122,1.122,1.123,1.122,1.123,1.123,1.124,1.125,1.126,1.126,1.127,1.127,1.129,1.129,1.129
0,0,0,0,0,0,0,0,0,0,0,0,0,0,0,0,0,0,0,0,0,0,0.606,0.604,0,0.6,0.598,0.595,0.593,0.591,0.589,0.588,0.587,0.586,0.585,0.584,0.583,0.582,0.581,0.579,0.578,0.576,0.574,0.572,0.57,0.568,0.566,0.565,0.563,0.56,0.558,0.556,0.554,0.552,0.55,0.548,0.546,0.545,0.543,0.542,0.541,0.541,0.54,0.54,0.54,0.54,0.54,0.54,0.54,0.54,0.541,0.541,0.541,0.541,0.542,0.542,0.542,0.542,0.543,0.543,0.543,0.544,0.544,0.544,0.545,0.545,0.546,0.546,0.547,0.548,0.548,0.549,0.55,0.551,0.552,0.553,0.554,0.554,0.555,0.556,0.556,0.557,0.557,0.557,0.558,0.558,0.558,0.558,0.558,0.558,0.558,0.558,0.557,0.557,0.557,0.556,0.556,0.556,0.556,0.555,0.555,0.555,0.555,0.555,0.555,0.556,0.556,0.557,0.557,0.559,0.559,0.56,0.562,0.563,0.565,0.567,0.569,0.57,0.572,0.572,0.573,0.573,0.573,0.574,0.574,0.574,0.574,0.575,0.575,0.575,0.575,0.576,0.576,0.577,0.577,0.577,0.577,0.577,0.577,0.577,0.577,0.577,0.577,0.578,0.578,0.578,0.578,0.579,0.579,0.579,0.579,0.579,0.579,0.579,0.579,0.579,0.58,0.58,0.581,0.581,0.581,0.581,0.581,0.581,0.581,0.58,0.58,0.58,0.58,0.58,0.58,0.579,0.578,0.577,0.577,0.576,0.575,0.574,0.574,0.576,0.579,0.582,0.585,0.59,0.595,0.6,0.604,0.606,0.607,0.608,0.608,0.609,0.609,0.61,0.61,0.61,0.61,0.611,0.611,0.611,0.611,0.611,0.611,0.611,0.61,0.61,0.61,0.61,0.61,0.609,0.609,0.609,0.61,0.611,0.612,0.613,0.614,0.615,0.616,0.617,0.619,0.62,0.621,0.622,0.623,0.623,0.624,0.625,0.625,0.626,0.626,0.626,0.626,0.627,0.628,0.629,0.629,0.631,0.632,0.634,0.635,0.637,0.639,0.641,0.642,0.645,0.647,0.648,0.65,0.651,0.653,0.654,0.655,0.655,0.655,0.655,0.655,0.656,0,0,0,0,0,0,0,0,0,0.762,0.762,0.762,0.762,0.761,0.761,0.761,0.761,0.761,0.762,0.763,0.764,0.766,0.769,0.772,0.776,0.779,0.782,0.784,0.788,0.79,0.793,0.795,0.796,0.797,0.798,0.799,0.8,0.801,0.803,0.805,0.807,0.809,0.811,0.813,0.815,0.817,0.819,0.82,0.822,0.823,0.824,0.825,0.825,0.825,0.825,0.826,0.828,0.828,0.828,0.83,0.83,0.831,0.833,0.834,0.835,0.836,0.839,0.841,0.844,0.847,0.849,0.851,0.854,0.856,0.858,0.859,0.86,0.862,0.863,0.864,0.865,0.866,0.867,0.869,0.87,0.871,0.873,0.873,0.874,0.875,0.877,0.877,0.878,0.88,0.88,0.881,0.882,0.884,0.885,0.887,0.889,0.891,0.892,0.894,0.897,0.899,0.9,0.902,0.904,0.905,0.907,0.908,0.91,0.911,0.912,0.913,0.913,0.914,0.914,0.915,0.917,0.917,0.919,0.92,0.921,0.923,0.924,0.924,0.926,0.927,0.927,0.928,0.929,0.93,0.93,0.932,0.933,0.934,0.936,0.938,0.939,0.941,0.942,0.944,0.945,0.946,0.948,0.948,0.949,0.95,0.951,0.952,0.954,0.957,0.959,0.961,0.964,0.966,0.97,0.975,0.979,0.982,0.986,0.989,0.992,0.996,0.998,1.001,1.003,1.007,1.011,1.015,1.02,1.027,1.036,1.046,0,1.07,1.081,1.091,1.099,1.104,1.109,1.114,1.117,1.119,1.121,1.123,1.124,1.125,1.126,1.127,1.127,1.127,1.126,1.127,1.127,1.129,1.13,1.13,1.131,1.13,1.13,1.13,1.129,1.127,1.126,1.126,1.126,1.126,1.126,1.125,1.124,1.124,1.124,1.124,1.123,1.123,1.122,1.122,1.123,1.123,1.123,1.123,1.123,1.121,1.121,1.121,1.119,1.119,1.119,1.119,1.119,1.119,1.118,1.118,1.118,1.119,1.118,1.118,1.118,1.118,1.118,1.119,1.119,1.119,1.121,1.121,1.121,1.121,1.121,1.121,1.122,1.122,1.123,1.124,1.124,1.125,1.125,1.126,1.127,1.127,1.127
0,0,0,0,0,0,0,0,0,0,0,0,0,0,0,0,0,0,0,0,0,0,0,0.598,0.597,0.596,0.594,0.592,0.59,0.589,0.588,0.587,0.586,0.585,0.585,0.584,0.583,0.582,0.581,0.58,0.578,0.577,0.575,0.573,0.571,0.569,0.567,0.565,0.563,0.561,0.559,0.557,0.555,0.553,0.551,0.549,0.548,0.546,0.545,0.544,0.543,0.542,0.542,0.541,0.541,0.541,0.541,0.541,0.541,0.541,0.541,0.541,0.542,0.542,0.542,0.542,0.542,0.542,0.543,0.543,0.543,0.544,0.544,0.544,0.545,0.545,0.546,0.546,0.547,0.548,0.548,0.549,0.55,0.551,0.552,0.553,0.554,0.554,0.555,0.555,0.556,0.556,0.557,0.557,0.558,0.558,0.558,0.558,0.558,0.558,0.558,0.558,0.557,0.557,0.557,0.556,0.556,0.556,0.556,0.556,0.555,0.555,0.555,0.556,0.556,0.556,0.556,0.557,0.557,0.558,0.559,0.56,0.561,0.562,0.565,0.566,0.568,0.57,0.571,0.572,0.573,0.573,0.573,0.574,0.574,0.574,0.575,0.575,0.575,0.576,0.576,0.576,0.577,0.577,0.577,0.577,0.577,0.577,0.577,0.577,0.577,0.578,0.578,0.578,0.579,0.579,0.579,0.579,0.579,0.579,0.579,0.579,0.579,0.579,0.579,0.579,0.58,0.58,0.581,0.581,0.581,0.58,0.58,0.58,0.58,0.579,0.579,0.579,0.578,0.578,0.579,0.578,0.577,0.577,0.576,0.575,0.574,0.573,0.574,0.577,0.58,0.583,0,0.591,0.596,0.601,0.605,0.607,0.608,0.608,0.609,0.61,0.61,0.611,0.611,0.611,0.611,0.612,0.612,0.612,0.612,0.612,0.612,0.612,0.611,0.611,0.611,0.611,0.61,0.61,0.61,0.61,0.611,0.612,0.613,0.614,0.616,0.617,0.618,0.619,0.62,0.621,0.622,0.623,0.624,0.624,0.625,0.626,0.626,0.627,0.627,0.627,0.628,0.628,0.629,0.63,0.63,0.632,0.634,0.635,0.637,0.639,0.641,0.642,0.644,0.646,0.648,0.65,0.651,0.653,0.655,0.657,0.658,0.658,0.659,0.66,0.66,0.661,0,0,0,0,0,0,0,0,0.763,0.762,0.762,0.762,0.761,0.761,0.761,0.761,0.76,0.761,0.762,0.763,0.764,0.766,0.769,0.772,0.776,0.779,0.782,0.784,0.788,0.79,0.793,0.796,0.797,0.798,0.798,0.8,0.801,0.802,0.804,0.806,0.808,0.81,0.812,0.814,0.817,0.818,0.82,0.822,0.823,0.823,0.825,0.825,0.826,0.826,0.826,0.827,0.828,0.829,0.83,0.83,0.831,0.833,0.834,0.835,0.837,0.839,0.841,0.843,0.846,0.848,0.85,0.852,0.855,0.857,0.858,0.86,0.861,0.862,0.864,0.864,0.866,0.866,0.868,0.869,0.871,0.871,0.872,0.873,0.873,0.875,0.876,0.877,0.878,0.879,0.88,0.88,0.882,0.884,0.885,0.887,0.889,0.891,0.893,0.895,0.897,0.899,0.9,0.902,0.903,0.905,0.907,0.908,0.91,0.911,0.911,0.912,0.913,0.914,0.914,0.915,0.916,0.917,0.918,0.92,0.92,0.922,0.923,0.924,0.925,0.926,0.927,0.927,0.928,0.93,0.93,0.931,0.933,0.934,0.935,0.937,0.939,0.94,0.942,0.943,0.944,0.946,0.947,0.948,0.949,0.95,0.951,0.952,0.953,0.955,0.958,0.96,0.963,0.966,0.97,0.974,0.979,0.983,0.986,0.989,0.993,0.996,0.998,1.001,1.004,1.007,1.012,1.016,1.022,1.029,1.039,1.047,1.057,1.069,1.08,1.091,1.098,1.105,1.109,1.114,1.118,1.119,1.122,1.123,1.124,1.125,1.126,1.127,1.127,1.127,1.127,1.127,1.127,1.129,1.129,1.13,1.13,1.13,1.13,1.13,1.129,1.129,1.127,1.126,1.125,1.125,1.125,1.124,1.123,1.122,1.122,1.122,1.122,1.122,1.121,1.121,1.122,1.123,1.123,1.123,1.122,1.121,1.119,1.119,1.119,1.119,1.118,1.118,1.118,1.118,1.118,1.118,1.118,1.118,1.118,1.118,1.118,1.118,1.118,1.118,1.118,1.118,1.119,1.119,1.119,1.119,1.119,1.119,1.121,1.121,1.122,1.123,1.123,1.124,1.124,1.125,1.126,1.126,1.126
0,0,0,0,0,0,0,0,0,0,0,0,0,0,0,0,0,0,0,0,0,0,0,0,0,0.591,0.59,0.589,0.588,0.587,0.586,0.586,0.586,0.585,0.585,0.584,0.583,0.582,0.581,0.58,0.579,0.577,0.575,0.573,0.571,0.569,0.567,0.565,0.564,0.562,0.56,0.558,0.556,0.554,0.552,0.551,0.549,0.548,0.546,0.545,0.544,0.544,0.543,0.542,0.542,0.542,0.542,0.542,0.542,0.542,0.542,0.542,0.542,0.542,0.542,0.542,0.542,0.542,0.542,0.543,0.543,0.543,0.544,0.544,0.544,0.545,0.545,0.546,0.547,0.548,0.548,0.549,0.55,0.551,0.552,0.552,0.553,0.554,0.554,0.555,0.555,0.556,0.556,0.557,0.557,0.557,0.557,0.558,0.557,0.557,0.557,0.557,0.557,0.557,0.557,0.556,0.556,0.556,0.556,0.556,0.556,0.556,0.556,0.556,0.556,0.556,0.556,0.557,0.557,0.559,0.559,0.56,0.561,0.563,0.564,0.566,0.568,0.57,0.571,0.572,0.573,0.573,0.573,0.574,0.574,0.575,0.575,0.575,0.576,0.576,0.576,0.577,0.577,0.577,0.577,0.577,0.577,0.578,0.578,0.578,0.579,0.579,0.579,0.579,0.58,0.58,0.58,0.58,0.58,0.58,0.58,0.58,0.58,0.58,0.58,0.58,0.58,0.581,0.581,0.581,0.581,0.58,0.58,0.579,0.579,0.578,0.578,0.577,0.577,0.577,0.577,0.577,0.577,0.576,0.575,0.575,0.574,0.573,0.574,0.577,0.581,0.584,0,0.593,0.598,0.603,0.607,0.608,0.609,0.609,0.61,0.61,0.611,0.611,0.611,0.612,0.612,0.613,0.613,0.613,0.613,0.613,0.614,0.613,0.613,0.613,0.612,0.612,0.611,0.611,0.612,0.612,0.612,0.613,0.614,0.616,0.617,0.618,0.619,0.62,0.621,0.622,0.623,0.624,0.624,0.625,0.626,0.627,0.627,0.628,0.628,0.628,0.628,0.629,0.63,0.631,0.631,0.633,0.634,0.636,0.638,0.64,0.642,0.644,0.646,0.648,0.65,0.652,0.653,0.655,0.657,0.659,0.66,0.661,0.661,0.662,0.663,0.664,0.664,0,0,0,0,0,0.766,0.764,0.763,0.762,0.761,0.761,0.761,0.76,0.76,0.76,0.76,0.761,0.762,0.763,0.764,0.766,0.769,0.772,0.776,0.78,0.782,0.785,0.788,0.791,0.793,0.796,0.797,0.798,0.799,0.8,0.801,0.803,0.805,0.807,0.81,0.811,0.814,0.816,0.818,0.82,0.821,0.822,0.823,0.824,0.825,0.825,0.826,0.826,0.826,0.828,0.828,0.829,0.83,0.831,0.832,0.834,0.836,0.837,0.839,0.841,0.843,0.846,0.848,0.85,0.852,0.854,0.856,0.858,0.859,0.86,0.862,0.863,0.864,0.865,0.866,0.867,0.869,0.869,0.871,0.871,0.872,0.873,0.873,0.875,0.876,0.877,0.877,0.879,0.88,0.881,0.882,0.884,0.886,0.888,0.889,0.892,0.894,0.895,0.897,0.899,0.901,0.902,0.903,0.905,0.907,0.908,0.91,0.911,0.911,0.912,0.912,0.913,0.914,0.914,0.915,0.916,0.917,0.919,0.92,0.921,0.923,0.924,0.924,0.925,0.926,0.927,0.927,0.929,0.93,0.93,0.932,0.934,0.934,0.936,0.938,0.939,0.941,0.942,0.943,0.945,0.946,0.948,0.949,0.95,0.95,0.951,0.953,0.955,0.958,0.96,0.963,0.966,0.97,0.974,0.978,0.982,0.986,0.989,0.992,0.996,0.998,1.001,1.005,1.008,1.012,1.017,1.022,1.03,1.039,1.046,1.056,1.068,1.079,1.089,1.098,1.104,1.109,1.114,1.118,1.121,1.123,1.123,1.124,1.125,1.126,1.126,1.126,1.126,1.127,1.127,1.127,1.127,1.129,1.129,1.13,1.13,1.13,1.13,1.13,1.129,1.127,1.126,1.125,1.124,1.124,1.123,1.122,1.121,1.122,1.121,1.121,1.121,1.121,1.121,1.121,1.122,1.122,1.122,1.121,1.119,1.118,1.118,1.118,1.118,1.117,1.117,1.117,1.117,1.118,1.118,1.118,1.117,1.117,1.117,1.117,1.117,1.117,1.118,1.118,1.118,1.118,1.119,1.119,1.119,1.119,1.119,1.119,1.119,1.121,1.122,1.122,1.123,1.124,1.124,1.124,1.124,1.124
0,0,0,0,0,0,0,0,0,0,0,0,0,0,0,0,0,0,0,0,0,0,0,0,0,0.588,0.587,0.587,0.586,0.586,0.586,0.586,0.586,0.585,0.585,0.585,0.584,0.583,0.582,0.581,0.579,0.577,0.576,0.574,0.572,0.57,0.568,0.566,0.564,0.562,0.56,0.559,0.557,0.555,0.554,0.552,0.551,0.549,0.548,0.547,0.546,0.545,0.544,0.544,0.543,0.543,0.542,0.542,0.542,0.542,0.542,0.542,0.542,0.542,0.542,0.542,0.542,0.542,0.542,0.542,0.543,0.543,0.543,0.544,0.544,0.545,0.545,0.546,0.546,0.547,0.548,0.549,0.549,0.55,0.551,0.552,0.552,0.553,0.554,0.554,0.555,0.555,0.556,0.556,0.556,0.557,0.557,0.557,0.557,0.557,0.557,0.557,0.557,0.557,0.557,0.557,0.557,0.557,0.557,0.557,0.557,0.557,0.557,0.557,0.557,0.557,0.557,0.557,0.558,0.559,0.56,0.56,0.561,0.563,0.564,0.566,0.567,0,0.57,0.572,0.572,0.573,0.573,0.574,0.574,0.575,0.575,0.575,0.576,0.576,0.577,0.577,0.577,0.577,0.578,0.577,0.578,0.578,0.579,0.579,0.579,0.579,0.58,0.58,0.58,0.581,0.581,0.581,0.581,0.581,0.581,0.581,0.581,0.581,0.581,0.581,0.581,0.581,0.581,0.581,0.581,0.58,0.58,0.579,0.579,0.578,0.577,0.577,0.577,0.577,0.577,0.577,0.576,0.575,0.575,0.574,0.574,0.573,0.575,0.577,0.581,0,0.588,0.593,0.598,0.603,0.608,0.609,0.609,0.61,0.611,0.611,0.612,0.612,0.612,0.612,0.613,0.614,0.614,0.614,0.615,0.615,0.615,0.615,0.615,0.615,0.614,0.614,0.614,0.614,0.614,0.614,0.615,0.615,0.616,0.618,0.619,0.619,0.62,0.621,0.622,0.623,0.624,0.625,0.625,0.626,0.627,0.628,0.628,0.629,0.629,0.629,0.63,0.63,0.631,0.632,0.633,0.634,0.636,0.638,0.639,0.642,0.644,0.646,0.648,0.65,0.652,0.653,0.655,0.657,0.659,0.661,0.662,0.663,0.664,0,0,0,0,0,0,0,0,0.766,0.765,0.764,0.763,0.762,0.761,0.76,0.76,0.76,0.759,0.76,0.76,0.76,0.761,0.763,0.764,0,0,0.772,0.777,0.78,0.783,0.785,0.789,0.792,0.794,0.796,0.798,0.798,0.8,0.801,0.802,0.804,0.806,0.808,0.81,0.812,0.815,0.817,0.819,0.821,0.822,0.823,0.824,0.825,0.826,0.826,0.826,0.826,0.827,0.828,0.829,0.83,0.831,0.832,0.834,0.835,0.837,0.839,0.841,0.843,0.845,0.848,0.85,0.851,0.853,0.855,0.857,0.859,0.86,0.861,0.862,0.864,0.865,0.866,0.866,0.868,0.869,0.87,0.871,0.871,0.872,0.873,0.874,0.875,0.876,0.877,0.877,0.879,0.88,0.881,0.883,0.884,0.887,0.888,0.89,0.892,0.894,0.896,0.898,0.9,0.901,0.902,0.903,0.905,0.907,0.908,0.91,0.911,0.911,0.912,0.913,0.913,0.914,0.914,0.914,0.916,0.917,0.918,0.919,0.92,0.921,0.922,0.923,0.924,0.924,0.925,0.927,0.927,0.929,0.93,0.931,0.933,0.934,0.935,0.937,0.939,0.941,0.942,0.943,0.945,0.946,0.947,0.949,0.95,0.95,0.95,0.952,0.955,0.957,0.959,0.962,0.965,0.969,0.973,0.978,0.982,0.985,0.989,0.992,0.995,0.998,1.001,1.004,1.008,1.012,1.017,1.022,1.03,1.038,1.045,1.055,1.067,1.078,1.088,1.097,1.104,1.109,1.115,1.119,1.122,1.123,1.123,1.124,1.124,1.125,1.126,1.126,1.126,1.126,1.126,1.127,1.127,1.127,1.129,1.129,1.129,1.13,1.13,1.129,1.129,1.127,1.126,1.125,1.124,1.123,1.122,1.121,1.119,1.121,1.121,1.121,1.121,1.121,1.121,1.121,1.122,1.121,1.121,1.119,1.119,1.118,1.118,1.117,1.117,1.117,1.117,1.117,1.117,1.117,1.117,1.117,1.117,1.117,1.117,1.117,1.117,1.117,1.117,1.117,1.117,1.118,1.118,1.119,1.119,1.119,1.119,1.119,1.119,1.121,1.122,1.123,1.123,1.123,1.124,1.124,1.124,1.123
0,0,0,0,0,0,0,0,0,0,0,0,0,0,0,0,0,0,0,0,0,0,0,0.587,0.586,0.586,0.586,0.586,0.586,0.586,0.586,0.586,0.586,0.586,0.585,0.585,0.584,0.583,0.582,0.581,0.579,0.578,0.576,0.574,0.572,0.57,0.568,0.566,0.565,0.563,0.561,0.559,0.557,0.556,0.555,0.553,0.552,0.55,0.549,0.548,0.547,0.546,0.545,0.545,0.544,0.544,0.544,0.543,0.543,0.543,0.543,0.543,0.542,0.542,0.542,0.542,0.542,0.542,0.542,0.542,0.542,0.542,0.543,0.543,0.544,0.544,0.545,0.545,0.546,0.547,0.548,0.548,0.549,0.55,0.55,0.551,0.552,0.552,0.553,0.553,0.554,0.554,0.555,0.555,0.555,0.556,0.556,0.556,0.556,0.557,0.557,0.557,0.557,0.557,0.557,0.557,0.558,0.558,0.558,0.558,0.557,0.557,0.557,0.557,0.558,0.557,0.558,0.558,0.559,0.559,0.56,0.561,0.561,0.563,0.564,0.565,0.567,0,0.57,0.571,0.572,0.572,0.573,0.574,0.575,0.575,0.575,0.575,0.576,0.577,0.577,0.577,0.577,0.578,0.578,0.578,0.578,0.579,0.579,0.58,0.58,0.58,0.581,0.581,0.581,0.581,0.581,0.581,0.581,0.581,0.581,0.581,0.581,0.581,0.581,0.582,0.582,0.582,0.582,0.581,0.581,0.58,0.58,0.579,0.578,0.578,0.577,0.577,0.577,0.577,0.577,0.577,0.576,0.575,0.575,0.575,0.574,0.574,0.575,0.578,0.581,0,0.589,0.594,0.599,0.604,0.608,0.609,0.61,0.61,0.611,0.612,0.612,0.613,0.613,0.613,0.614,0.615,0.615,0.615,0.616,0.616,0.617,0.617,0.617,0.617,0.617,0.616,0.616,0.616,0.616,0.616,0.617,0.617,0.618,0.619,0.62,0.621,0.622,0.622,0.623,0.624,0.625,0.626,0.626,0.627,0.628,0.629,0.629,0.629,0.63,0.63,0.631,0.631,0.632,0.633,0.634,0.636,0.637,0.639,0.641,0.644,0.646,0.648,0.65,0.652,0.653,0.655,0.657,0.658,0.661,0.663,0.665,0.666,0.666,0.668,0.669,0,0,0,0,0,0.766,0.765,0.764,0.763,0.762,0.761,0.76,0.76,0.759,0.759,0.759,0.759,0.759,0.76,0,0.763,0.764,0,0,0.774,0.777,0.781,0.784,0.787,0.79,0.792,0.794,0.797,0.798,0.799,0.8,0.802,0.804,0.805,0.808,0.81,0.812,0.814,0.817,0.818,0.821,0.822,0.823,0.824,0.825,0.826,0.826,0.826,0.827,0.827,0.828,0.828,0.83,0.83,0.831,0.832,0.834,0.836,0.838,0.84,0.842,0.845,0.847,0.85,0.852,0.853,0.855,0.857,0.858,0.86,0.86,0.862,0.863,0.865,0.866,0.867,0.868,0.869,0.87,0.871,0.872,0.872,0.873,0.873,0.874,0.875,0.876,0.877,0.877,0.879,0.88,0.881,0.883,0.884,0.886,0.888,0.89,0.891,0.894,0.895,0.897,0.899,0.9,0.902,0.903,0.905,0.907,0.908,0.91,0.911,0.911,0.912,0.913,0.914,0.914,0.914,0.914,0.915,0.916,0.917,0.918,0.92,0.92,0.921,0.922,0.924,0.924,0.924,0.926,0.927,0.928,0.929,0.93,0.932,0.934,0.936,0.937,0.938,0.94,0.942,0.942,0.944,0.946,0.947,0.948,0.949,0.95,0.95,0.952,0.954,0.956,0.958,0.961,0.965,0.968,0.972,0.976,0.981,0.984,0.988,0.991,0.994,0.997,1,1.004,1.007,1.012,1.018,1.022,1.03,1.038,1.045,1.055,1.067,1.077,1.088,1.097,1.105,1.11,1.116,1.121,1.123,1.124,1.124,1.124,1.124,1.124,1.125,1.126,1.126,1.126,1.127,1.127,1.127,1.127,1.127,1.129,1.129,1.13,1.129,1.129,1.129,1.127,1.126,1.125,1.124,1.123,1.122,1.119,1.119,1.119,1.119,1.119,1.119,1.119,1.121,1.121,1.122,1.121,1.119,1.119,1.118,1.117,1.117,1.117,1.116,1.116,1.116,1.116,1.117,1.117,1.117,1.117,1.117,1.116,1.116,1.116,1.116,1.116,1.116,1.117,1.117,1.117,1.118,1.119,1.118,1.118,1.119,1.119,1.119,1.119,1.121,1.122,1.122,1.123,1.124,1.124,1.123,1.123
0,0,0,0,0,0,0,0,0,0,0,0,0,0,0,0,0,0,0,0,0,0,0,0,0.586,0.586,0.586,0.586,0.586,0.586,0.586,0.586,0.586,0.585,0.585,0.584,0.584,0.583,0.582,0.581,0.579,0.578,0.576,0.574,0.572,0.57,0.568,0.567,0.565,0.563,0.561,0.56,0.558,0.557,0.555,0.554,0.553,0.551,0.55,0.549,0.548,0.548,0.547,0.546,0.545,0.545,0.545,0.544,0.544,0.544,0.543,0.543,0.543,0.543,0.542,0.542,0.542,0.542,0.542,0.542,0.542,0.542,0.542,0.543,0.544,0.544,0.544,0.545,0.546,0.546,0.547,0.548,0.548,0.549,0.55,0.55,0.551,0.551,0.552,0.552,0.553,0.553,0.554,0.554,0.555,0.555,0.555,0.555,0.556,0.556,0.557,0.557,0.557,0.557,0.558,0.558,0.558,0.559,0.559,0.559,0.559,0.558,0.558,0.558,0.558,0.558,0.558,0.559,0.559,0.56,0.561,0.561,0.562,0.563,0.564,0.565,0.567,0.568,0.569,0.571,0.571,0.572,0.573,0.574,0.574,0.575,0.575,0.576,0.576,0.577,0.577,0.577,0.578,0.578,0.578,0.579,0.579,0.579,0.58,0.58,0.58,0.581,0.581,0.581,0.582,0.582,0.582,0.582,0.582,0.582,0.582,0.582,0.582,0.582,0.582,0.583,0.583,0.583,0.582,0.582,0.581,0.58,0.58,0.579,0.579,0.578,0.578,0.578,0.577,0.577,0.577,0.577,0.577,0.576,0.575,0.575,0.575,0.575,0.576,0.579,0.582,0.585,0.589,0.594,0.599,0.604,0.608,0.609,0.61,0.611,0.612,0.613,0.613,0.613,0.614,0.614,0.615,0.615,0.616,0.616,0.617,0.618,0.618,0.618,0.619,0.619,0.619,0.619,0.619,0.618,0.619,0.619,0.619,0.62,0.62,0.621,0.622,0.622,0.623,0.623,0.624,0.625,0.625,0.626,0.627,0.628,0.629,0.629,0.63,0.63,0.631,0.631,0.632,0.633,0.633,0.634,0.635,0.637,0.639,0.641,0.643,0.645,0.648,0.65,0.652,0.654,0.655,0.657,0.658,0.66,0.662,0.665,0.667,0.668,0.669,0.67,0.672,0.674,0,0,0,0,0.765,0.764,0.763,0.762,0.761,0.761,0.76,0.759,0.759,0.758,0.758,0.758,0.759,0.76,0.761,0.763,0.765,0.768,0.772,0.775,0.779,0.782,0.785,0.787,0.79,0.793,0.796,0.797,0.8,0.801,0.802,0.803,0.805,0.807,0.809,0.811,0.813,0.815,0.818,0.82,0.822,0.823,0.823,0.825,0.825,0.826,0.826,0.827,0.828,0.828,0.828,0.829,0.83,0.83,0.831,0.833,0.835,0.837,0.839,0.841,0.843,0.846,0.849,0.851,0.853,0.854,0.856,0.858,0.859,0.861,0.861,0.862,0.864,0.866,0.867,0.868,0.869,0.87,0.871,0.872,0.873,0.873,0.873,0.873,0.874,0.875,0.876,0.877,0.877,0.879,0.88,0.882,0.883,0.884,0.887,0.887,0.889,0.891,0.893,0.895,0.897,0.899,0.9,0.902,0.903,0.905,0.907,0.908,0.909,0.91,0.911,0.911,0.912,0.913,0.913,0.914,0.914,0.915,0.916,0.917,0.917,0.919,0.92,0.921,0.922,0.923,0.924,0.924,0.925,0.927,0.927,0.928,0.93,0.931,0.934,0.935,0.936,0.938,0.939,0.941,0.942,0.943,0.945,0.946,0.947,0.948,0.949,0.95,0.951,0.953,0.955,0.957,0.96,0.964,0.967,0.971,0.976,0.98,0.983,0.988,0.991,0.994,0.997,1,1.004,1.007,1.012,1.018,1.024,1.031,1.039,1.047,1.057,1.068,1.078,1.089,1.098,1.105,1.112,1.118,1.122,1.124,1.124,1.124,1.124,1.124,1.124,1.125,1.126,1.126,1.127,1.127,1.127,1.127,1.127,1.127,1.127,1.127,1.129,1.129,1.129,1.127,1.127,1.126,1.125,1.124,1.123,1.122,1.119,1.119,1.119,1.119,1.119,1.119,1.121,1.121,1.121,1.121,1.121,1.119,1.119,1.118,1.117,1.117,1.117,1.116,1.116,1.116,1.116,1.116,1.117,1.117,1.116,1.116,1.116,1.116,1.116,1.116,1.115,1.115,1.116,1.117,1.117,1.118,1.118,1.118,1.118,1.118,1.119,1.119,1.119,1.119,1.121,1.122,1.122,1.123,1.123,1.124,1.123
0,0,0,0,0,0,0,0,0,0,0,0,0,0,0,0,0,0,0,0,0,0,0,0,0.586,0.585,0.586,0.586,0.585,0.586,0.586,0.586,0.586,0.585,0.585,0.584,0.584,0.583,0.581,0.58,0.579,0.578,0.576,0,0.572,0.571,0.569,0.567,0.565,0.563,0.562,0.56,0.559,0.557,0.556,0.555,0.554,0.552,0.551,0.551,0.55,0.549,0.548,0.548,0.547,0.546,0.545,0.545,0.545,0.544,0.544,0.544,0.543,0.543,0.543,0.542,0.542,0.542,0.542,0.542,0.542,0.542,0.542,0.543,0.543,0.544,0.544,0.545,0.545,0.546,0.547,0.547,0.548,0.548,0.549,0.549,0.55,0.551,0.551,0.552,0.552,0.553,0.553,0.554,0.554,0.554,0.555,0.555,0.555,0.556,0.556,0.557,0.557,0.558,0.558,0.559,0.559,0.559,0.56,0.56,0.559,0.559,0.559,0.559,0.559,0.559,0.559,0.559,0.56,0.56,0.561,0.562,0.563,0.563,0.564,0.565,0.566,0,0.569,0.57,0.572,0.572,0.573,0.574,0.575,0.575,0.576,0.576,0.577,0.577,0.577,0.578,0.578,0.579,0.579,0.58,0.58,0.58,0.581,0.581,0.581,0.581,0.582,0.582,0.582,0.583,0.583,0.583,0.582,0.583,0.583,0.583,0.583,0.583,0.584,0.584,0.584,0.584,0.583,0.583,0.581,0.581,0.58,0.58,0.579,0.579,0.578,0.578,0.578,0.578,0.578,0.578,0.577,0.577,0.576,0.576,0.575,0.575,0.577,0.579,0.582,0.586,0,0.594,0.599,0.604,0.607,0.609,0.61,0.611,0.612,0.613,0.614,0.614,0.614,0.615,0.616,0.616,0.617,0.617,0.618,0.619,0.619,0.62,0.62,0.621,0.621,0.621,0.621,0.621,0.621,0.621,0.621,0.622,0.622,0.623,0.623,0.623,0.623,0.624,0.624,0.625,0.626,0.626,0.628,0.629,0.629,0.63,0.631,0.631,0.632,0.633,0.633,0.633,0.634,0.636,0.637,0.639,0.641,0.643,0.645,0.648,0.65,0.652,0.654,0.656,0.657,0.659,0.66,0.662,0.664,0.667,0.669,0.67,0.671,0.674,0,0,0,0,0,0.765,0.764,0.763,0.762,0.762,0.761,0.76,0.759,0.759,0.758,0.757,0.757,0.758,0.759,0.76,0.762,0.764,0.766,0.77,0.773,0.777,0.78,0.784,0.787,0.789,0.792,0.794,0.797,0.799,0.8,0.802,0.803,0.805,0.807,0.808,0.81,0.812,0.815,0.817,0.819,0.821,0.823,0.824,0.825,0.825,0.826,0.826,0.826,0.827,0.828,0.828,0.828,0.83,0.83,0.831,0.832,0.834,0.836,0.838,0.84,0.843,0.845,0.848,0.85,0.852,0.854,0.855,0.857,0.858,0.86,0.861,0.862,0.863,0.864,0.866,0.867,0.869,0.869,0.871,0.871,0.873,0.873,0.873,0.873,0.874,0.875,0.875,0.876,0.877,0.878,0.88,0.881,0.882,0.883,0.884,0.887,0.887,0.889,0.891,0.892,0.895,0.897,0.899,0.9,0.902,0.903,0.905,0.906,0.908,0.909,0.91,0.91,0.911,0.911,0.912,0.913,0.913,0.914,0.914,0.916,0.917,0.917,0.919,0.92,0.921,0.922,0.923,0.923,0.924,0.925,0.926,0.927,0.927,0.929,0.93,0.932,0.934,0.935,0.937,0.938,0.939,0.941,0.942,0.943,0.945,0.946,0.947,0.948,0.949,0.95,0.953,0.955,0.957,0.96,0.963,0.966,0.97,0.975,0.979,0.982,0.987,0.989,0.993,0.996,0.999,1.004,1.007,1.012,1.019,1.025,1.034,1.042,1.05,1.059,1.07,1.079,1.091,1.099,1.106,1.113,1.118,1.123,1.124,1.125,1.125,1.125,1.125,1.125,1.126,1.126,1.127,1.127,1.127,1.127,1.127,1.127,1.127,1.127,1.127,1.127,1.129,1.129,1.127,1.126,1.126,1.124,1.124,1.122,1.121,1.119,1.119,1.119,1.119,1.119,1.119,1.121,1.121,1.121,1.121,1.121,1.121,1.119,1.118,1.118,1.117,1.117,1.116,1.116,1.116,1.116,1.116,1.116,1.116,1.116,1.116,1.116,1.116,1.115,1.115,1.115,1.115,1.116,1.116,1.117,1.118,1.118,1.118,1.118,1.119,1.119,1.119,1.119,1.121,1.121,1.122,1.122,1.123,1.123,1.123,1.123
0,0,0,0,0,0,0,0,0,0,0,0,0,0,0,0,0,0,0,0,0,0,0,0,0.586,0.586,0.586,0.586,0.586,0.586,0.586,0.586,0.585,0.585,0.584,0.584,0.583,0.582,0.581,0.58,0.579,0.578,0.576,0.575,0.572,0.571,0.569,0.567,0.565,0.563,0.562,0.56,0.559,0.558,0.557,0.555,0.554,0.553,0.552,0.552,0.551,0.55,0.549,0.549,0.548,0.547,0.546,0.546,0.545,0.545,0.544,0.544,0.544,0.543,0.543,0.543,0.542,0.542,0.542,0.542,0.542,0.542,0.542,0.542,0.543,0.543,0.544,0.544,0.545,0.545,0.546,0.547,0.547,0.548,0.548,0.549,0.549,0.55,0.55,0.551,0.551,0.552,0.552,0.552,0.553,0.554,0.554,0.554,0.555,0.555,0.556,0.557,0.557,0.558,0.559,0.559,0.56,0.561,0.561,0.561,0.561,0.56,0.56,0.56,0.56,0.56,0.56,0.56,0.561,0.561,0.561,0.562,0.563,0.563,0.564,0.565,0.566,0.568,0.569,0.57,0.571,0.572,0.573,0.575,0.575,0.575,0.575,0.576,0.577,0.577,0.578,0.578,0.579,0.579,0.579,0.58,0.58,0.581,0.581,0.581,0.581,0.582,0.582,0.583,0.583,0.583,0.583,0.583,0.583,0.584,0.584,0.584,0.584,0.584,0.585,0.585,0.585,0.584,0.584,0.583,0.582,0.581,0.58,0.58,0.58,0.579,0.579,0.579,0.579,0.579,0.579,0.579,0.578,0.577,0.577,0.576,0.576,0.576,0.577,0.58,0.582,0.586,0.589,0.594,0,0.603,0.607,0.608,0.61,0.611,0.613,0.614,0.615,0.615,0.615,0.616,0.617,0.617,0.618,0.618,0.619,0.62,0.621,0.622,0.622,0.623,0.623,0.623,0.623,0.623,0.624,0.623,0.623,0.624,0.624,0.624,0.624,0.624,0.624,0.624,0.625,0.625,0.626,0.627,0.628,0.629,0.629,0.63,0.631,0.632,0.633,0.633,0.634,0.635,0.636,0.638,0.639,0.641,0.642,0.644,0.647,0.649,0.652,0.654,0.656,0.658,0.659,0.66,0.661,0.663,0.666,0.668,0.67,0.671,0.673,0.675,0.677,0,0,0,0,0,0.763,0.762,0.762,0.761,0.76,0.759,0.759,0.757,0.757,0.757,0.757,0.758,0.759,0.76,0.762,0.764,0.767,0.771,0.774,0.778,0.782,0.785,0.788,0.791,0.794,0.796,0.798,0.8,0.801,0.803,0.804,0.806,0.808,0.81,0.811,0.814,0.815,0.817,0.82,0.822,0.823,0.825,0.825,0.825,0.826,0.827,0.828,0.828,0.828,0.829,0.83,0.83,0.831,0.833,0.834,0.836,0.838,0.84,0.843,0.845,0.847,0.85,0.852,0.854,0.855,0.856,0.858,0.859,0.86,0.861,0.862,0.863,0.865,0.866,0.867,0.869,0.87,0.871,0.872,0.873,0.874,0.874,0.874,0.875,0.875,0.875,0.876,0.877,0.878,0.88,0.881,0.882,0.883,0.885,0.887,0.887,0.889,0.891,0.892,0.894,0.897,0.899,0.9,0.902,0.903,0.905,0.906,0.908,0.908,0.909,0.91,0.911,0.911,0.912,0.912,0.913,0.913,0.914,0.915,0.916,0.917,0.917,0.919,0.92,0.921,0.922,0.923,0.924,0.924,0.925,0.926,0.927,0.927,0.929,0.931,0.933,0.934,0.935,0.937,0.938,0.939,0.941,0.942,0.944,0.945,0.946,0.947,0.948,0.95,0.951,0.953,0.955,0.959,0.962,0.965,0.97,0.974,0.978,0.982,0.986,0.989,0.992,0.996,0.998,1.003,1.007,1.012,1.019,1.025,1.035,1.044,1.052,1.063,1.072,1.082,1.093,1.101,1.107,1.113,1.118,1.122,1.124,1.125,1.126,1.126,1.125,1.125,1.127,1.127,1.127,1.127,1.127,1.127,1.127,1.127,1.126,1.127,1.126,1.127,1.127,1.127,1.127,1.127,1.126,1.125,1.124,1.123,1.122,1.119,1.121,1.119,1.119,1.119,1.121,1.121,1.121,1.121,1.121,1.121,1.121,1.119,1.118,1.118,1.117,1.117,1.116,1.116,1.116,1.116,1.116,1.116,1.116,1.116,1.116,1.116,1.115,1.115,1.115,1.115,1.115,1.115,1.116,1.117,1.118,1.118,1.118,1.118,1.119,1.119,1.119,1.121,1.121,1.121,1.121,1.122,1.123,1.123,1.123,1.122
