0,0,0,0,0,0,0,0,0,0,0,0,0,0,0,0,0,0,0,0,0.55,0.55,0.55,0.549,0.549,0.549,0.548,0.546,0.545,0.544,0.541,0.539,0.537,0.534,0.532,0.53,0.528,0.526,0.525,0.523,0.523,0.522,0.521,0.52,0.519,0.518,0.517,0.516,0.514,0.513,0.512,0.511,0.51,0.509,0.508,0.507,0.506,0.505,0.504,0.503,0.502,0.501,0.5,0.499,0.497,0.496,0.495,0.494,0.493,0.492,0.491,0.489,0.488,0.487,0.486,0.485,0.484,0.483,0.482,0.482,0.481,0.48,0.479,0.478,0.477,0.476,0.476,0.475,0.474,0.473,0.473,0.472,0.471,0.47,0.469,0.468,0.468,0.467,0.467,0.466,0.465,0.465,0.465,0.465,0.465,0.465,0.465,0.465,0.465,0.465,0.466,0.466,0.467,0.468,0.468,0.469,0.471,0.473,0.475,0.476,0.479,0.481,0.483,0.486,0.488,0.491,0.494,0.498,0,0.505,0.509,0.513,0.516,0.518,0.519,0.521,0.522,0.523,0.524,0.525,0.526,0.526,0.527,0.528,0.529,0.53,0.531,0.531,0.532,0.533,0.534,0.534,0.535,0.535,0.536,0.537,0.537,0.538,0.539,0.54,0.541,0.541,0.542,0.543,0.544,0.545,0.546,0.547,0.547,0.548,0.549,0.55,0.551,0.551,0.552,0.552,0.553,0.554,0.555,0.555,0.561,0,0,0,0.59,0,0,0,0,0.572,0.572,0.572,0.571,0.57,0.569,0,0,0,0,0,0,0,0,0,0,0,0,0,0,0,0,0.518,0.518,0.518,0.518,0.519,0.519,0.52,0,0,0,0.712,0.712,0.713,0.713,0.714,0.715,0.715,0.717,0.718,0.719,0.72,0.721,0.722,0.723,0.724,0.725,0.724,0.724,0.723,0.723,0.722,0.721,0.721,0.721,0.72,0.719,0.718,0.717,0.716,0.715,0.715,0.714,0.713,0.712,0.711,0.71,0.71,0.709,0.708,0.708,0.707,0.706,0.705,0.705,0.705,0.705,0.705,0.705,0.705,0.705,0.705,0.706,0.707,0.708,0.709,0.711,0.713,0.715,0.718,0.721,0.722,0.725,0.727,0.729,0.73,0.731,0.731,0.732,0.732,0.732,0.733,0.734,0.734,0.734,0.734,0.735,0.735,0.735,0.735,0.735,0.735,0.735,0.736,0.736,0.736,0.737,0.737,0.737,0.738,0.738,0.739,0.739,0.739,0.74,0.74,0.741,0.741,0.741,0.742,0.743,0.743,0.743,0.744,0.745,0.745,0.745,0.746,0.746,0.746,0.747,0.747,0.748,0.748,0.748,0.748,0.749,0.749,0.749,0.75,0.749,0.749,0.749,0.749,0.749,0.749,0.748,0.748,0.748,0.748,0.748,0.748,0.747,0.748,0.748,0.749,0.749,0.749,0.75,0.75,0.75,0.751,0.752,0.752,0.753,0.755,0.756,0.757,0.759,0.762,0.764,0.766,0.767,0.769,0.771,0.773,0.776,0.779,0.782,0.786,0.789,0.793,0.798,0.802,0.805,0.808,0.812,0.817,0.821,0.825,0.829,0.833,0.837,0.841,0.845,0.849,0.852,0.853,0.856,0.857,0.858,0.859,0.859,0.86,0.86,0,0.86,0,0,3.563,3.552,3.552,3.541,3.541,3.529,3.518,3.518,3.507,3.496,3.485,3.474,3.452,3.431,3.42,3.389,3.379,3.358,3.348,3.328,3.318,3.308,3.298,3.288,3.279,3.269,3.259,3.25,3.24,3.222,3.212,3.203,3.185,3.175,3.157,3.148,3.131,3.122,3.113,3.096,3.087,3.078,3.07,3.061,3.045,3.036,3.028,3.011,2.995,2.979,2.971,2.955,2.947,2.932,2.916,2.909,2.901,2.886,2.878,2.871,2.856,2.849,2.842,2.834,2.827,2.813,2.806,2.799,2.791,2.784,2.771,2.764,2.757,2.75,2.743,2.736,2.73,2.723,2.716,2.703,2.703,2.696,2.69,2.683,2.677,2.67,2.664,2.658,2.651,2.645,2.632,2.626,2.614,2.608,2.595,2.589,2.577,2.571,2.559,2.553,2.542,2.536,2.524,2.519,2.507,2.502,2.49,2.485,2.474,2.468,2.457,2.452,2.441,2.43,2.425,2.42,2.414,2.409,2.404,2.399,2.394,2.388,2.388,2.383,2.378,2.373,2.368,2.363,2.358,2.353,2.343,2.338,2.333
0,0,0,0,0,0,0,0,0,0,0,0,0,0,0,0,0,0,0,0,0,0.551,0.551,0.551,0.55,0.549,0.549,0.548,0.546,0.545,0.542,0.54,0.538,0.535,0.533,0.531,0.529,0.527,0,0.524,0.523,0.522,0.521,0.521,0.52,0.519,0.518,0.516,0.515,0.514,0.513,0.512,0.511,0.51,0.509,0.508,0.507,0.506,0.505,0.504,0.503,0.502,0.501,0.5,0.499,0.497,0.496,0.495,0.494,0.493,0.492,0.49,0.489,0.488,0.487,0.486,0.485,0.484,0.483,0.482,0.482,0.481,0.48,0.479,0.478,0.477,0.476,0.476,0.475,0.474,0.473,0.472,0.472,0.471,0.47,0.469,0.468,0.468,0.467,0.467,0.466,0.466,0.466,0.465,0.466,0.466,0.466,0.466,0.466,0.467,0.467,0.467,0.468,0.469,0.47,0.471,0.473,0.474,0.476,0.478,0.48,0.482,0.484,0.487,0.489,0.492,0.495,0.499,0,0.505,0.509,0.512,0.516,0.518,0.519,0.52,0.521,0.523,0.524,0.525,0.525,0.526,0.528,0.529,0.53,0.531,0.531,0.532,0.533,0.534,0.535,0.535,0.536,0.537,0.537,0.538,0.538,0.539,0.54,0.541,0.542,0.542,0.543,0.544,0.545,0.546,0.547,0.548,0.548,0.549,0.55,0.551,0.551,0.552,0.552,0.553,0.554,0.555,0,0,0,0,0.609,0.604,0.603,0,0,0,0,0,0,0.576,0,0,0,0,0,0,0,0,0,0,0,0,0,0,0,0,0,0,0,0,0,0,0.519,0.519,0,0,0,0,0,0.711,0.711,0.712,0.712,0.714,0.714,0.715,0.716,0.717,0.72,0.721,0.722,0.724,0.725,0.726,0.727,0.727,0.726,0.726,0.725,0.724,0.724,0.723,0.722,0.722,0.721,0.72,0.719,0.718,0.717,0.716,0.715,0.714,0.714,0.713,0.712,0.711,0.71,0.709,0.709,0.708,0.707,0.706,0.706,0.705,0.705,0.705,0.705,0.705,0.705,0.706,0.707,0.708,0.709,0.711,0.713,0.715,0.718,0.721,0.723,0.725,0.727,0.729,0.731,0.731,0.732,0.732,0.733,0.733,0.733,0.733,0.734,0.734,0.734,0.734,0.734,0.735,0.735,0.735,0.735,0.735,0.735,0.735,0.736,0.736,0.737,0.737,0.738,0.738,0.738,0.739,0.739,0.739,0.74,0.74,0.741,0.741,0.741,0.742,0.743,0.743,0.743,0.744,0.744,0.745,0.745,0.745,0.745,0.746,0.746,0.747,0.747,0.747,0.747,0.747,0.748,0.748,0.748,0.748,0.748,0.748,0.748,0.748,0.748,0.747,0.747,0.747,0.747,0.747,0.747,0.747,0.747,0.747,0.748,0.749,0.749,0.75,0.75,0.751,0.751,0.752,0.753,0.754,0.755,0.756,0.759,0.76,0.762,0.764,0.767,0.769,0.77,0.772,0.774,0.776,0.779,0.782,0.785,0.788,0.793,0.797,0.801,0.804,0.808,0.811,0.814,0.818,0.822,0.825,0.828,0.832,0.836,0.84,0.845,0.848,0.851,0.853,0.855,0.857,0.858,0.858,0.86,0.86,0.86,0.859,0.859,0,0,0,3.541,3.541,3.529,3.529,3.529,3.518,3.507,3.496,3.485,3.474,3.463,3.442,3.431,3.41,3.389,3.368,3.358,3.338,3.328,3.318,3.308,3.298,3.288,3.279,3.269,3.259,3.24,3.231,3.222,3.212,3.194,3.185,3.175,3.157,3.148,3.131,3.122,3.113,3.104,3.087,3.078,3.07,3.061,3.053,3.036,3.028,3.011,2.995,2.987,2.971,2.955,2.947,2.932,2.924,2.909,2.901,2.886,2.878,2.871,2.856,2.849,2.842,2.834,2.82,2.813,2.806,2.799,2.791,2.777,2.771,2.764,2.757,2.75,2.743,2.736,2.73,2.723,2.716,2.703,2.696,2.69,2.69,2.683,2.677,2.67,2.664,2.651,2.645,2.639,2.632,2.62,2.614,2.601,2.595,2.583,2.577,2.571,2.559,2.553,2.542,2.536,2.524,2.513,2.507,2.502,2.49,2.479,2.474,2.463,2.457,2.446,2.441,2.43,2.425,2.414,2.409,2.404,2.404,2.399,2.394,2.388,2.388,2.383,2.378,2.373,2.368,2.363,2.358,2.353,2.348,2.338,2.333
0,0,0,0,0,0,0,0,0,0,0,0,0,0,0,0,0,0,0,0,0,0,0,0,0.552,0.551,0.55,0.548,0.547,0.545,0.543,0.541,0.538,0.536,0.534,0,0.529,0.528,0.526,0,0.524,0.522,0.522,0.521,0.52,0.519,0.518,0.517,0.516,0.515,0.514,0.513,0.512,0.511,0.51,0.509,0.508,0.507,0.506,0.505,0.504,0.503,0.502,0.501,0.499,0.499,0.497,0.496,0.495,0.494,0.492,0.491,0.49,0.489,0.488,0.487,0.486,0.485,0.484,0.483,0.482,0.481,0.481,0.48,0.479,0.478,0.477,0.476,0.475,0.475,0.474,0.473,0.472,0.471,0.471,0.47,0.469,0.468,0.468,0.467,0.467,0.467,0.467,0.466,0.466,0.466,0.467,0.467,0.467,0.468,0.468,0.469,0.469,0.471,0.471,0.473,0.474,0.476,0.478,0.48,0.481,0.483,0.485,0.488,0.49,0.493,0.496,0.499,0.503,0.506,0.509,0.512,0.515,0.517,0.519,0.52,0.521,0.522,0.523,0.524,0.525,0.526,0.527,0.529,0.53,0.531,0.532,0.533,0.534,0.535,0.536,0.536,0.537,0.538,0.538,0.539,0.54,0.541,0.541,0.542,0.543,0.544,0.545,0.545,0.546,0.547,0.548,0.548,0.549,0.549,0.551,0.551,0.552,0.552,0.553,0.553,0.554,0,0,0,0,0,0,0,0.61,0,0,0,0,0,0,0,0,0,0,0,0,0,0,0,0,0,0,0,0,0,0,0,0,0,0,0,0,0,0,0,0,0,0,0,0.71,0.71,0.711,0.712,0.712,0.713,0.714,0.714,0.715,0.718,0.72,0.722,0.724,0.726,0.728,0.729,0.73,0.73,0.729,0.729,0.728,0.727,0.727,0.726,0.725,0.724,0.723,0.722,0.721,0.72,0.719,0.718,0.717,0.715,0.715,0.714,0.713,0.712,0.711,0.71,0.709,0.708,0.707,0.706,0.706,0.705,0.705,0.705,0.705,0.705,0.706,0.707,0.708,0.709,0.711,0.713,0.715,0.718,0.72,0.723,0.725,0.727,0.729,0.731,0.731,0.732,0.732,0.733,0.733,0.733,0.733,0.733,0.734,0.734,0.734,0.734,0.734,0.734,0.735,0.735,0.734,0.734,0.735,0.735,0.736,0.737,0.737,0.737,0.738,0.738,0.739,0.739,0.739,0.739,0.74,0.74,0.741,0.741,0.741,0.742,0.743,0.743,0.743,0.743,0.744,0.745,0.745,0.745,0.745,0.745,0.745,0.746,0.746,0.746,0.747,0.747,0.747,0.747,0.748,0.747,0.747,0.747,0.747,0.747,0.746,0.746,0.746,0.746,0.746,0.746,0.746,0.746,0.746,0.747,0.748,0.749,0.749,0.75,0.751,0.752,0.753,0.754,0.755,0.756,0.758,0.759,0.761,0.762,0,0,0.77,0.772,0.773,0.775,0.777,0.779,0.782,0.784,0.787,0.79,0.794,0.798,0.802,0.805,0.808,0.811,0.814,0.817,0.821,0.824,0.828,0.831,0.835,0.839,0.843,0.847,0.85,0.852,0.854,0.856,0.857,0.858,0.859,0.858,0.859,0.859,0.858,0.858,0,0,0,3.529,3.529,3.529,3.518,3.507,3.507,3.496,3.485,3.474,3.452,3.442,3.42,3.399,3.379,3.368,3.358,3.338,3.328,3.318,3.298,3.298,3.288,3.279,3.269,3.25,3.24,3.231,3.222,3.203,3.194,3.185,3.166,3.157,3.139,3.131,3.122,3.113,3.096,3.087,3.078,3.07,3.061,3.045,3.036,3.02,3.011,2.995,2.987,2.971,2.955,2.947,2.932,2.916,2.909,2.894,2.886,2.871,2.864,2.856,2.849,2.842,2.827,2.82,2.813,2.806,2.799,2.784,2.777,2.771,2.764,2.757,2.75,2.743,2.736,2.73,2.723,2.71,2.703,2.696,2.69,2.683,2.683,2.67,2.664,2.658,2.651,2.645,2.632,2.626,2.62,2.608,2.601,2.595,2.583,2.577,2.565,2.559,2.548,2.542,2.53,2.524,2.513,2.502,2.496,2.485,2.479,2.468,2.463,2.452,2.446,2.436,2.43,2.42,2.414,2.409,2.404,2.404,2.399,2.394,2.388,2.388,2.383,2.378,2.373,2.368,2.363,2.358,2.353,2.348,2.343,2.333
0,0,0,0,0,0,0,0,0,0,0,0,0,0,0,0,0,0,0,0,0,0,0,0,0,0,0,0.55,0.548,0.546,0.542,0.54,0,0.536,0.534,0.532,0.529,0.528,0.527,0.525,0.524,0.523,0.522,0.522,0.521,0.52,0.519,0.518,0.517,0.516,0.515,0.514,0.513,0.512,0.511,0.51,0.509,0.508,0.507,0.506,0.505,0.504,0.503,0.502,0.501,0.499,0.498,0.497,0.496,0.495,0.493,0.492,0.491,0.489,0.488,0.487,0.486,0.485,0.485,0.484,0.483,0.482,0.481,0.48,0.48,0.479,0.478,0.477,0.476,0.475,0.475,0.474,0.473,0.472,0.471,0.47,0.47,0.469,0.469,0.468,0.468,0.467,0.467,0.467,0.467,0.468,0.468,0.468,0.469,0.469,0.47,0.471,0.471,0.472,0.473,0.475,0.476,0.477,0.479,0.481,0.482,0.484,0.486,0.489,0.491,0.494,0.497,0.5,0.503,0.506,0.509,0.512,0.515,0.517,0.518,0.519,0.52,0.522,0.523,0.524,0.525,0.526,0.527,0.529,0.53,0.532,0.532,0.533,0.535,0.536,0.537,0.537,0.538,0.539,0.54,0.541,0.541,0.542,0.542,0.543,0.544,0.545,0.546,0.546,0.547,0.548,0.549,0.549,0.549,0.55,0.551,0.552,0.552,0.552,0.553,0.553,0.554,0,0,0,0,0,0.615,0.614,0,0,0,0,0,0,0,0,0,0,0,0,0,0,0,0,0,0,0,0,0,0,0,0,0,0,0,0,0,0,0,0,0,0,0.71,0.71,0.71,0.71,0.71,0.711,0.711,0.712,0.712,0.713,0.715,0.718,0.721,0.724,0.726,0.729,0.73,0.731,0.732,0.732,0.732,0.731,0.731,0.73,0.73,0.729,0.728,0.727,0.725,0.724,0.723,0.722,0.721,0.72,0.719,0.717,0.716,0.715,0.714,0.713,0.712,0.711,0.71,0.709,0.708,0.707,0.706,0.706,0.706,0.705,0.705,0.706,0.707,0.708,0.709,0.71,0.712,0.715,0.717,0.72,0.722,0.725,0.727,0.729,0.73,0.731,0.732,0.732,0.732,0.733,0.733,0.733,0.733,0.733,0.734,0.734,0.734,0.734,0.734,0.734,0.735,0.735,0.734,0.734,0.735,0.735,0.736,0.737,0.737,0.738,0.738,0.739,0.739,0.739,0.739,0.739,0.74,0.74,0.74,0.741,0.741,0.742,0.742,0.743,0.743,0.743,0.744,0.744,0.744,0.744,0.744,0.744,0.745,0.745,0.745,0.746,0.746,0.745,0.746,0.746,0.746,0.746,0.746,0.746,0.746,0.746,0.745,0.745,0.745,0.745,0.745,0.745,0.745,0.745,0.746,0.747,0.748,0.749,0.75,0.751,0.752,0.753,0.754,0.755,0.757,0.759,0.76,0.762,0.763,0.765,0.767,0,0.772,0.774,0.776,0.778,0.779,0.782,0.784,0.787,0.789,0.792,0.796,0.798,0.802,0.805,0.808,0.811,0.813,0.816,0.82,0.823,0.826,0.83,0.833,0.838,0.841,0.845,0.849,0.851,0.853,0.855,0.856,0.856,0.857,0.858,0.858,0.858,0.858,0.857,0.856,0,0,0,3.518,3.518,3.518,3.507,3.496,3.485,3.474,3.463,3.442,3.431,3.41,3.389,3.379,3.358,3.348,3.338,3.328,3.308,3.298,3.288,3.288,3.279,3.259,3.25,3.24,3.231,3.222,3.203,3.185,3.175,3.157,3.148,3.131,3.122,3.113,3.104,3.096,3.087,3.078,3.061,3.053,3.045,3.036,3.02,3.011,2.995,2.987,2.971,2.955,2.947,2.932,2.916,2.901,2.894,2.878,2.871,2.856,2.849,2.842,2.834,2.827,2.82,2.806,2.799,2.791,2.784,2.777,2.771,2.764,2.757,2.75,2.743,2.736,2.73,2.723,2.71,2.703,2.696,2.69,2.683,2.677,2.67,2.664,2.651,2.645,2.639,2.632,2.626,2.614,2.608,2.601,2.589,2.583,2.571,2.565,2.553,2.548,2.536,2.53,2.519,2.513,2.502,2.49,2.485,2.474,2.468,2.457,2.452,2.441,2.436,2.43,2.42,2.414,2.409,2.404,2.399,2.399,2.394,2.388,2.388,2.383,2.378,2.378,2.373,2.368,2.363,2.353,2.348,2.343,2.333
0,0,0,0,0,0,0,0,0,0,0,0,0,0,0,0,0,0,0,0,0,0,0,0,0,0,0,0,0,0,0,0,0,0.536,0.534,0.532,0.53,0.529,0.528,0.526,0.525,0.524,0.523,0.522,0.522,0.521,0.52,0.519,0.518,0.517,0.516,0.515,0.514,0.514,0.513,0.512,0.51,0.51,0.508,0.507,0.506,0.505,0.504,0.503,0.502,0.5,0.499,0.498,0.497,0.495,0.494,0.493,0.491,0.49,0.489,0.488,0.487,0.486,0.485,0.485,0.484,0.483,0.482,0.481,0.48,0.479,0.479,0.478,0.477,0.476,0.475,0.475,0.474,0.473,0.472,0.471,0.471,0.47,0.47,0.469,0.469,0.468,0.469,0.468,0.469,0.469,0.47,0.47,0.471,0.471,0.472,0.473,0.473,0.474,0.475,0.476,0.477,0.479,0.48,0.482,0.484,0.485,0.488,0.49,0.492,0.495,0.498,0.501,0.504,0.506,0.51,0.512,0.515,0.517,0.518,0.519,0.52,0.522,0.523,0.524,0.525,0.526,0.527,0.529,0.53,0.532,0.533,0.534,0.535,0.536,0.537,0.538,0.539,0.54,0.541,0.541,0.542,0.543,0.544,0.544,0.545,0.546,0.546,0.548,0.548,0.549,0.549,0.55,0.551,0.551,0.552,0.552,0.553,0.553,0.553,0.553,0.554,0,0,0,0,0.616,0.615,0,0,0,0,0,0.608,0.606,0,0,0,0,0,0,0,0,0,0,0,0,0,0,0,0,0,0,0,0,0,0,0,0,0,0,0.713,0.711,0.71,0.71,0.709,0.709,0.709,0.71,0.71,0.711,0.711,0.712,0.715,0.719,0.722,0.725,0.729,0.731,0.733,0.734,0.735,0.735,0.735,0.734,0.733,0.733,0.732,0.731,0.73,0.729,0.728,0.727,0.725,0.724,0.722,0.721,0.72,0.719,0.718,0.716,0.715,0.714,0.713,0.712,0.711,0.709,0.709,0.707,0.707,0.706,0.705,0.705,0.706,0.706,0.708,0.709,0.71,0.713,0.715,0.717,0.72,0.722,0.724,0.727,0.728,0.73,0.731,0.731,0.732,0.732,0.733,0.733,0.733,0.733,0.733,0.733,0.734,0.734,0.734,0.734,0.734,0.734,0.735,0.735,0.734,0.734,0.735,0.735,0.736,0.737,0.737,0.738,0.738,0.739,0.739,0.739,0.739,0.74,0.74,0.74,0.74,0.741,0.741,0.742,0.743,0.743,0.743,0.743,0.743,0.744,0.744,0.744,0.744,0.744,0.744,0.744,0.744,0.744,0.744,0.744,0.745,0.745,0.745,0.745,0.745,0.744,0.745,0.744,0.744,0.744,0.744,0.744,0.745,0.744,0.745,0.745,0.745,0.747,0.748,0.749,0.751,0.752,0.753,0.755,0.756,0.757,0.759,0.761,0.762,0.764,0.766,0.767,0.77,0.772,0.774,0.777,0.778,0.78,0.782,0.784,0.785,0.788,0.79,0.793,0.796,0.799,0.802,0.805,0.807,0.809,0.812,0.815,0.818,0.821,0.824,0.828,0.832,0.836,0.84,0.844,0.847,0.849,0.852,0.854,0.854,0.856,0.856,0.857,0.857,0.857,0.856,0.856,0.855,0.854,0.854,0,0,3.518,3.507,3.496,3.496,3.474,3.463,3.452,3.431,3.42,3.399,3.389,3.368,3.358,3.348,3.338,3.318,3.308,3.298,3.288,3.279,3.269,3.259,3.25,3.24,3.231,3.212,3.203,3.185,3.166,3.157,3.139,3.131,3.113,3.104,3.096,3.096,3.087,3.07,3.061,3.053,3.045,3.028,3.02,3.003,2.995,2.987,2.971,2.955,2.94,2.924,2.916,2.901,2.886,2.878,2.864,2.856,2.849,2.834,2.827,2.82,2.813,2.806,2.799,2.791,2.784,2.777,2.771,2.764,2.757,2.75,2.743,2.736,2.73,2.723,2.71,2.703,2.696,2.69,2.683,2.677,2.67,2.658,2.651,2.645,2.639,2.626,2.62,2.614,2.601,2.595,2.589,2.577,2.571,2.559,2.553,2.542,2.536,2.524,2.519,2.507,2.502,2.49,2.479,2.474,2.463,2.457,2.452,2.441,2.436,2.43,2.42,2.414,2.409,2.404,2.399,2.399,2.394,2.388,2.388,2.383,2.383,2.378,2.373,2.368,2.363,2.358,2.353,2.343,2.338
0,0,0,0,0,0,0,0,0,0,0,0,0,0,0,0,0,0,0,0,0,0,0,0,0,0,0,0,0,0,0,0.54,0.537,0.535,0.534,0.532,0.53,0.529,0.528,0.527,0.525,0.524,0.523,0.523,0.522,0.521,0.521,0.52,0.519,0.518,0.518,0.517,0.516,0.515,0.514,0.513,0.512,0.511,0.51,0.509,0.508,0.506,0.505,0.504,0.503,0.502,0.5,0.499,0.498,0.496,0.495,0.493,0.492,0.491,0.49,0.489,0.488,0.487,0.486,0.485,0.484,0.484,0.482,0.482,0.481,0.48,0.479,0.478,0.477,0.477,0.476,0.475,0.475,0.474,0.473,0.472,0.472,0.471,0.471,0.471,0.47,0.47,0.47,0.47,0.471,0.471,0.472,0.472,0.473,0.473,0.474,0.475,0.475,0.476,0.477,0.478,0.479,0.48,0.482,0.483,0.485,0.487,0.489,0.491,0.494,0.497,0.499,0.502,0.505,0.507,0.51,0.512,0.514,0.516,0.518,0.519,0.52,0.521,0.523,0.524,0.525,0.526,0.527,0.529,0.531,0.532,0.533,0.535,0.536,0.537,0.538,0.539,0.54,0.54,0.541,0.542,0.543,0.544,0.545,0.545,0.546,0.547,0.548,0.548,0.549,0.55,0.551,0.551,0.552,0.552,0.553,0.553,0.554,0.554,0.554,0,0,0,0,0.618,0.616,0.616,0,0.614,0.614,0.613,0,0,0,0,0,0,0,0,0,0,0,0,0,0,0,0,0,0,0,0,0,0,0,0,0,0,0,0,0,0.714,0.713,0.711,0.71,0.71,0.709,0.709,0.709,0.709,0.709,0.71,0.711,0.712,0.715,0,0,0,0.731,0.735,0.737,0.738,0.739,0.738,0.738,0.737,0.736,0.735,0.735,0.733,0.732,0.731,0.73,0.729,0.727,0.725,0.724,0.723,0.722,0.721,0.719,0.718,0.717,0.715,0.715,0.713,0.712,0.71,0.709,0.708,0.707,0.706,0.706,0.706,0.707,0.708,0.709,0.71,0.712,0.715,0.716,0.719,0.722,0.724,0.726,0.728,0.729,0.731,0.731,0.731,0.732,0.732,0.733,0.733,0.733,0.733,0.733,0.733,0.734,0.734,0.734,0.734,0.734,0.735,0.735,0.735,0.734,0.735,0.735,0.736,0.736,0.737,0.737,0.737,0.738,0.739,0.739,0.739,0.74,0.74,0.74,0.741,0.741,0.741,0.742,0.742,0.743,0.742,0.742,0.742,0.743,0.743,0.743,0.743,0.743,0.743,0.743,0.743,0.743,0.743,0.743,0.743,0.743,0.744,0.744,0.744,0.743,0.744,0.744,0.744,0.743,0.743,0.743,0.743,0.744,0.744,0.745,0.745,0.746,0.747,0.748,0.75,0.751,0.753,0.755,0.756,0.758,0.76,0.761,0.763,0.765,0.766,0.767,0.77,0.772,0.774,0.776,0.778,0.78,0.781,0.783,0.784,0.787,0.789,0.79,0.793,0.796,0.798,0.801,0.803,0.805,0.807,0.81,0.812,0.814,0.818,0.821,0.825,0.829,0.834,0.838,0.842,0.845,0.847,0.849,0.851,0.852,0.854,0.854,0.855,0.855,0.855,0.855,0.854,0.854,0.853,0.852,0.851,0,0,3.507,3.496,3.485,3.474,3.452,3.442,3.42,3.41,3.389,3.379,3.368,3.358,3.348,3.328,3.318,3.308,3.298,3.288,3.279,3.269,3.259,3.25,3.24,3.231,3.212,3.194,3.175,3.166,3.148,3.139,3.131,3.113,3.104,3.096,3.087,3.078,3.07,3.061,3.045,3.036,3.028,3.02,3.003,2.995,2.987,2.971,2.955,2.94,2.924,2.909,2.901,2.886,2.871,2.856,2.849,2.842,2.834,2.827,2.82,2.813,2.806,2.799,2.791,2.784,2.777,2.771,2.764,2.757,2.75,2.743,2.736,2.73,2.723,2.71,2.703,2.696,2.69,2.683,2.677,2.67,2.658,2.651,2.645,2.632,2.626,2.614,2.608,2.601,2.595,2.583,2.577,2.565,2.559,2.548,2.542,2.53,2.524,2.513,2.507,2.496,2.49,2.479,2.474,2.463,2.457,2.452,2.441,2.436,2.43,2.42,2.414,2.409,2.404,2.399,2.399,2.394,2.388,2.388,2.383,2.383,2.378,2.373,2.368,2.363,2.358,2.353,2.348,2.338
0,0,0,0,0,0,0,0,0,0,0,0,0,0,0,0,0,0,0,0,0,0,0,0,0,0,0,0,0,0,0,0,0.536,0.534,0.533,0.531,0.53,0.529,0.528,0.527,0.526,0.526,0.525,0.524,0.523,0.522,0.522,0.521,0.52,0.52,0.519,0.518,0.518,0.517,0.516,0.515,0.514,0.513,0.512,0.51,0.509,0.508,0.507,0.506,0.504,0.503,0.501,0.5,0.499,0,0.495,0.494,0.493,0.492,0.49,0.489,0.489,0.488,0.487,0.486,0.485,0.484,0.483,0.482,0.481,0.481,0.48,0.479,0.478,0.477,0.477,0.476,0.475,0.475,0.474,0.473,0.473,0.472,0.472,0.472,0.472,0.472,0.472,0.472,0.473,0.473,0.474,0.474,0.475,0.475,0.476,0.477,0.477,0.478,0.479,0.48,0.481,0.482,0.483,0.485,0.486,0.488,0.491,0.493,0.495,0.498,0.5,0.503,0.505,0.507,0.51,0.512,0.514,0.516,0.517,0.519,0.52,0.521,0.522,0.523,0.524,0.526,0.527,0.529,0.531,0.532,0.534,0.535,0.536,0.537,0.538,0.539,0.54,0.541,0.542,0.544,0.544,0.545,0.546,0.546,0.547,0.548,0.549,0.549,0.55,0.55,0.551,0.552,0.552,0.553,0,0,0,0,0,0,0,0,0,0.618,0.617,0.616,0.615,0.614,0.614,0.613,0,0,0,0,0,0,0,0,0,0,0,0,0,0,0,0,0,0,0,0,0,0,0,0,0,0,0,0,0.715,0.714,0.713,0.712,0.71,0.71,0.709,0.709,0.708,0.709,0.709,0.709,0.71,0.712,0.716,0,0,0,0.734,0.738,0.74,0.741,0.742,0.741,0.74,0.74,0.739,0.738,0.737,0.735,0.734,0.733,0.731,0.73,0.728,0.727,0.726,0.724,0.723,0.722,0.721,0.719,0.718,0.717,0.715,0.714,0.713,0.711,0.71,0.709,0.708,0.707,0.707,0.707,0.707,0.709,0.71,0.712,0.714,0.717,0.719,0.721,0.724,0.726,0.728,0.729,0.73,0.731,0.731,0.732,0.732,0.732,0.733,0.733,0.733,0.733,0.733,0.733,0.734,0.734,0.734,0.734,0.734,0.735,0.735,0.735,0.735,0.735,0.736,0.736,0.737,0.737,0.737,0.737,0.738,0.739,0.739,0.739,0.739,0.74,0.74,0.741,0.74,0.741,0.741,0.742,0.742,0.742,0.742,0.742,0.742,0.743,0.742,0.742,0.742,0.742,0.742,0.742,0.742,0.742,0.742,0.742,0.742,0.743,0.743,0.743,0.742,0.743,0.743,0.743,0.743,0.743,0.743,0.743,0.744,0.744,0.745,0.746,0.747,0.748,0.749,0.751,0.753,0.755,0.756,0.758,0.76,0.761,0.763,0.765,0.766,0.768,0.77,0.771,0.773,0.775,0.777,0.778,0.78,0.782,0.783,0.784,0.787,0.788,0.79,0.792,0.794,0.797,0.8,0.801,0.803,0.805,0.807,0.809,0.811,0.814,0.818,0.823,0.827,0.831,0.836,0.84,0.844,0.846,0.847,0.849,0.851,0.852,0.852,0.853,0.854,0.854,0.854,0.853,0.852,0.852,0.851,0.851,0.85,0,0,3.485,3.474,3.463,3.442,3.431,3.42,3.399,3.379,3.368,3.358,3.348,3.338,3.328,3.318,3.308,3.298,3.288,3.279,3.269,3.259,3.25,3.24,3.222,3.203,3.194,3.175,3.157,3.148,3.131,3.122,3.113,3.096,3.087,3.078,3.078,3.07,3.053,3.045,3.036,3.028,3.011,3.003,2.995,2.979,2.971,2.955,2.94,2.924,2.909,2.894,2.886,2.871,2.856,2.842,2.834,2.827,2.82,2.813,2.806,2.799,2.791,2.784,2.784,2.777,2.771,2.764,2.757,2.75,2.743,2.736,2.73,2.723,2.716,2.703,2.696,2.69,2.683,2.677,2.67,2.658,2.645,2.639,2.632,2.62,2.614,2.608,2.595,2.589,2.583,2.571,2.565,2.559,2.548,2.542,2.53,2.519,2.513,2.502,2.496,2.49,2.479,2.474,2.468,2.457,2.452,2.441,2.436,2.43,2.425,2.42,2.409,2.404,2.404,2.399,2.394,2.388,2.388,2.383,2.383,2.378,2.373,2.368,2.368,2.363,2.353,2.348,2.343
0,0,0,0,0,0,0,0,0,0,0,0,0,0,0,0,0,0,0,0,0,0,0,0,0,0,0,0,0,0,0,0,0,0.532,0.532,0.53,0.53,0.529,0.528,0.528,0.527,0.526,0.525,0.524,0.524,0.523,0.522,0.522,0.521,0.521,0.52,0.52,0.519,0.518,0.517,0.517,0.515,0.514,0.513,0.512,0.511,0.51,0.509,0.507,0.506,0.505,0.503,0.502,0.5,0.498,0.497,0.495,0.494,0.492,0.491,0.491,0.489,0.489,0.488,0.487,0.486,0.485,0.484,0.483,0.482,0.481,0.48,0.48,0.479,0.478,0.477,0.477,0.476,0.475,0.475,0.474,0.474,0.474,0.473,0.473,0.473,0.474,0.474,0.474,0.475,0.475,0.476,0.477,0.477,0.477,0.478,0.479,0.479,0.48,0.481,0.482,0.482,0.484,0.485,0.486,0.488,0.49,0.492,0.494,0.497,0.499,0.501,0.504,0.506,0.507,0.51,0.512,0.514,0.516,0.517,0.519,0.52,0.521,0.522,0.523,0.524,0.526,0.527,0.529,0.531,0.532,0.534,0.535,0.536,0.537,0.539,0.54,0.541,0.541,0.543,0.544,0.545,0.546,0.547,0.548,0.548,0.549,0.549,0.55,0.55,0.551,0,0,0,0.553,0,0,0,0,0,0,0,0,0,0.619,0.618,0.617,0.616,0.615,0.614,0.614,0,0,0,0,0,0,0,0,0,0,0,0,0,0,0,0,0,0,0,0,0,0,0,0,0,0,0,0,0.715,0.714,0.713,0.712,0.711,0.71,0.709,0.709,0.709,0.709,0.709,0.709,0.709,0.711,0.715,0,0,0,0.735,0.74,0.742,0.743,0.743,0.743,0.742,0.741,0.74,0.739,0.737,0.736,0.735,0.733,0.732,0.731,0.729,0.728,0.727,0.725,0.724,0.722,0.721,0.72,0.719,0.717,0.716,0.715,0.713,0.712,0.71,0.709,0.709,0.708,0.708,0.708,0.709,0.71,0.712,0.714,0.716,0.719,0.721,0.723,0.726,0.727,0.729,0.73,0.731,0.731,0.732,0.732,0.732,0.732,0.733,0.733,0.733,0.733,0.734,0.734,0.734,0.734,0.734,0.734,0.735,0.735,0.735,0.735,0.735,0.736,0.736,0.737,0.737,0.737,0.737,0.738,0.738,0.739,0.739,0.739,0.739,0.74,0.74,0.74,0.74,0.741,0.741,0.742,0.742,0.742,0.741,0.742,0.742,0.742,0.742,0.741,0.741,0.741,0.741,0.741,0.741,0.741,0.741,0.741,0.742,0.742,0.742,0.742,0.742,0.742,0.742,0.743,0.742,0.742,0.743,0.744,0.744,0.745,0.746,0.747,0.748,0.749,0.75,0.752,0.754,0.756,0.758,0.76,0.761,0.762,0.765,0.766,0.768,0.77,0.771,0.772,0.774,0.776,0.777,0.779,0.78,0.782,0.782,0.784,0.785,0.787,0.789,0.79,0.793,0.795,0.797,0.799,0.8,0.802,0.804,0.805,0.807,0.811,0.815,0.82,0.824,0.828,0.833,0.837,0.841,0.844,0.846,0.847,0.848,0.849,0.851,0.851,0.852,0.852,0.851,0.852,0.851,0.851,0.851,0.849,0.849,0.849,0,0,0,3.452,3.431,3.42,3.41,3.389,3.368,3.368,3.358,3.348,3.338,3.328,3.318,3.308,3.298,3.288,3.279,3.269,3.259,3.25,3.231,3.222,3.203,3.194,3.175,3.157,3.139,3.131,3.113,3.104,3.096,3.087,3.078,3.07,3.061,3.053,3.045,3.036,3.02,3.011,3.003,2.995,2.979,2.971,2.955,2.94,2.924,2.909,2.894,2.878,2.864,2.849,2.842,2.834,2.82,2.813,2.806,2.799,2.799,2.791,2.784,2.777,2.777,2.771,2.764,2.757,2.75,2.743,2.736,2.73,2.723,2.716,2.71,2.696,2.69,2.683,2.677,2.664,2.658,2.645,2.639,2.632,2.62,2.614,2.601,2.595,2.589,2.583,2.571,2.565,2.553,2.548,2.536,2.53,2.519,2.513,2.502,2.496,2.49,2.479,2.474,2.468,2.457,2.452,2.441,2.436,2.43,2.425,2.42,2.414,2.409,2.404,2.399,2.394,2.394,2.388,2.383,2.383,2.378,2.373,2.373,2.368,2.363,2.358,2.348,2.343
0,0,0,0,0,0,0,0,0,0,0,0,0,0,0,0,0,0,0,0,0,0,0,0,0,0,0,0,0,0,0,0,0,0,0.531,0.53,0.53,0.529,0.528,0.528,0.527,0.526,0.525,0.525,0.524,0.524,0.523,0.523,0.522,0.522,0.521,0.521,0.521,0.52,0.519,0.518,0.517,0.516,0.515,0.514,0.513,0.512,0.51,0.509,0.508,0.506,0.505,0.503,0.501,0.5,0.498,0.496,0.495,0.494,0.493,0.491,0.49,0.489,0.489,0.488,0.487,0.486,0.485,0.484,0.483,0.482,0.481,0.48,0.479,0.479,0.478,0.477,0.477,0.476,0.476,0.475,0.475,0.475,0.475,0.475,0.475,0.475,0.476,0.476,0.476,0.477,0.478,0.478,0.479,0.48,0.48,0.481,0.481,0.482,0.483,0.484,0.485,0.486,0.487,0.488,0.49,0.492,0.494,0.496,0.498,0.5,0.502,0.504,0.506,0.508,0.51,0.511,0.514,0.515,0.517,0.518,0.52,0.521,0.522,0.523,0.524,0.525,0.527,0.529,0.53,0.532,0.533,0.535,0.536,0.538,0.539,0.54,0.541,0.542,0.543,0.545,0.546,0.547,0.547,0.548,0.549,0.549,0.55,0.551,0.551,0.552,0,0.553,0.553,0.554,0,0,0,0,0,0,0,0,0,0,0,0,0,0,0.614,0,0,0,0,0,0,0,0,0,0,0,0,0,0,0,0,0,0,0,0,0,0,0,0,0,0,0,0,0,0.715,0.714,0.713,0.712,0.711,0.71,0.709,0.709,0.709,0.709,0.709,0.709,0.709,0.711,0.715,0,0,0,0.734,0.74,0.742,0.742,0.743,0.742,0.742,0.741,0.74,0.739,0.737,0.736,0.735,0.734,0.732,0.731,0.729,0.728,0.727,0.726,0.724,0.723,0.721,0.72,0.719,0.718,0.716,0.715,0.714,0.712,0.711,0.71,0.709,0.709,0.708,0.709,0.709,0.711,0.713,0.715,0.718,0.72,0.723,0.725,0.727,0.729,0.729,0.731,0.731,0.731,0.732,0.732,0.732,0.732,0.733,0.733,0.733,0.734,0.734,0.734,0.734,0.735,0.735,0.735,0.735,0.735,0.735,0.736,0.736,0.736,0.737,0.737,0.738,0.738,0.738,0.738,0.739,0.739,0.739,0.739,0.739,0.74,0.74,0.74,0.74,0.741,0.741,0.741,0.741,0.741,0.741,0.74,0.741,0.741,0.741,0.741,0.741,0.741,0.741,0.741,0.741,0.741,0.741,0.741,0.741,0.741,0.742,0.742,0.742,0.742,0.742,0.742,0.743,0.743,0.743,0.744,0.745,0.746,0.747,0.748,0.749,0.75,0.752,0.754,0.756,0.757,0.76,0.761,0.762,0.763,0.766,0.767,0.769,0.77,0.771,0.772,0.774,0.776,0.777,0.778,0.779,0.78,0.782,0.784,0.785,0.787,0.788,0.789,0.791,0.793,0.794,0.796,0.797,0.798,0.8,0.802,0.803,0.807,0.811,0.815,0,0.825,0.83,0.835,0.84,0.842,0.844,0.845,0.847,0.847,0.849,0.849,0.85,0.85,0.851,0.851,0.851,0.85,0.85,0.849,0.848,0.847,0.846,0.845,0,0.843,0,3.41,3.399,3.379,3.368,3.358,3.358,3.348,3.338,3.328,3.318,3.308,3.298,3.288,3.279,3.259,3.25,3.24,3.231,3.212,3.203,3.185,3.166,3.157,3.139,3.122,3.113,3.104,3.087,3.078,3.07,3.07,3.061,3.053,3.036,3.028,3.02,3.011,3.003,2.987,2.979,2.963,2.947,2.94,2.924,2.909,2.894,2.878,2.864,2.849,2.834,2.827,2.82,2.813,2.806,2.799,2.791,2.791,2.784,2.777,2.771,2.771,2.764,2.757,2.75,2.743,2.736,2.73,2.723,2.716,2.71,2.703,2.69,2.683,2.677,2.664,2.658,2.645,2.639,2.626,2.62,2.614,2.601,2.595,2.589,2.583,2.571,2.565,2.553,2.548,2.542,2.53,2.519,2.513,2.502,2.496,2.49,2.479,2.474,2.468,2.463,2.452,2.446,2.436,2.43,2.425,2.42,2.414,2.409,2.404,2.399,2.394,2.394,2.388,2.383,2.383,2.378,2.373,2.373,2.368,2.363,2.358,2.348,2.343
0,0,0,0,0,0,0,0,0,0,0,0,0,0,0,0,0,0,0,0,0,0,0,0,0,0,0,0,0,0,0,0,0,0,0,0.53,0.53,0.529,0.529,0.528,0.528,0.527,0.526,0.526,0.525,0.525,0.524,0.524,0.523,0.523,0.523,0.522,0.522,0.521,0.52,0.52,0.519,0.518,0.517,0.516,0.514,0.513,0.512,0.511,0.51,0.508,0.507,0.505,0.503,0.501,0.5,0.498,0.497,0.495,0.494,0.492,0.491,0.49,0.489,0.489,0.488,0.487,0.486,0.485,0.484,0.483,0.482,0.481,0.48,0.479,0.479,0.478,0.477,0.477,0.477,0.476,0.476,0.476,0.476,0.476,0.476,0.477,0.477,0.478,0.478,0.479,0.48,0.48,0.481,0.481,0.482,0.483,0.483,0.484,0.485,0.486,0.487,0.488,0.489,0.49,0.492,0.494,0.496,0.498,0.499,0.501,0.503,0.505,0.506,0.508,0.51,0.512,0.514,0.515,0.517,0.518,0.52,0.521,0.522,0.523,0.524,0.525,0.527,0.528,0.53,0.532,0.533,0.535,0.536,0.537,0.539,0.54,0.541,0.542,0.544,0.545,0.546,0.547,0.548,0.549,0.55,0.55,0.551,0.552,0.552,0.553,0,0.554,0,0,0,0,0,0,0,0,0,0,0,0,0,0,0,0,0,0,0,0,0,0,0,0,0,0,0,0,0,0,0,0,0,0,0,0,0,0,0,0,0,0,0,0,0,0,0.715,0.715,0.713,0.713,0.711,0.71,0.709,0.709,0.709,0.709,0.709,0.709,0.709,0.71,0.714,0.719,0,0.728,0.733,0.737,0.739,0.74,0.741,0.741,0.74,0.739,0.738,0.737,0.736,0.735,0.734,0.733,0.731,0.73,0.728,0.727,0.726,0.725,0.724,0.722,0.721,0.721,0.719,0.718,0.717,0.715,0.714,0.713,0.712,0.71,0.709,0.709,0.709,0.709,0.71,0.712,0.715,0.717,0.72,0.722,0.724,0.726,0.728,0.73,0.73,0.731,0.731,0.732,0.732,0.732,0.732,0.733,0.733,0.733,0.734,0.734,0.734,0.734,0.735,0.735,0.735,0.735,0.735,0.736,0.736,0.736,0.737,0.737,0.737,0.738,0.738,0.738,0.738,0.739,0.739,0.739,0.739,0.739,0.74,0.74,0.74,0.74,0.74,0.74,0.74,0.741,0.741,0.74,0.74,0.74,0.74,0.74,0.74,0.74,0.74,0.74,0.74,0.74,0.74,0.74,0.74,0.74,0.741,0.741,0.741,0.741,0.742,0.742,0.742,0.743,0.743,0.743,0.744,0.745,0.746,0.747,0.748,0.749,0.75,0.752,0.753,0.755,0.756,0.759,0.76,0.761,0.762,0.764,0.766,0.767,0.769,0.77,0.771,0.772,0.774,0.775,0.776,0.777,0.778,0.78,0.781,0.783,0.784,0.785,0.787,0.788,0.789,0.79,0.792,0.793,0.794,0.796,0.797,0.798,0.8,0.802,0.807,0.811,0,0.82,0.826,0.831,0.836,0.839,0.841,0.842,0.844,0.845,0.846,0.847,0.848,0.848,0.849,0.849,0.849,0.849,0.848,0.848,0.847,0.846,0.845,0.844,0,0,0.841,3.399,3.389,3.379,3.368,3.358,3.348,3.348,3.338,3.328,3.318,3.308,3.298,3.288,3.279,3.259,3.25,3.24,3.222,3.212,3.203,3.185,3.166,3.148,3.139,3.122,3.113,3.104,3.087,3.078,3.07,3.061,3.053,3.045,3.036,3.028,3.02,3.011,2.995,2.987,2.979,2.963,2.947,2.94,2.924,2.909,2.894,2.878,2.864,2.849,2.834,2.827,2.82,2.813,2.799,2.799,2.791,2.784,2.784,2.777,2.771,2.764,2.764,2.757,2.757,2.75,2.736,2.73,2.723,2.716,2.71,2.703,2.69,2.683,2.677,2.67,2.658,2.645,2.639,2.626,2.62,2.614,2.601,2.595,2.589,2.583,2.571,2.565,2.559,2.548,2.542,2.53,2.519,2.513,2.507,2.496,2.49,2.485,2.479,2.468,2.463,2.457,2.446,2.441,2.436,2.425,2.42,2.414,2.409,2.404,2.399,2.399,2.394,2.388,2.388,2.383,2.378,2.378,2.373,2.368,2.363,2.358,2.353,2.343
0,0,0,0,0,0,0,0,0,0,0,0,0,0,0,0,0,0,0,0,0,0,0,0,0,0,0,0,0,0,0,0,0,0,0,0.53,0.53,0.529,0.529,0.528,0.528,0.527,0.527,0.526,0.526,0.525,0.525,0.525,0.524,0.524,0.524,0.523,0.523,0.522,0.522,0.521,0.52,0.519,0.518,0.517,0.516,0.515,0.514,0.513,0.511,0.51,0.509,0.507,0.505,0.503,0.501,0.5,0.498,0.496,0.495,0.493,0.492,0.491,0.49,0.489,0.489,0.488,0.486,0.486,0.485,0.484,0.483,0.482,0.481,0.48,0.479,0.479,0.478,0.478,0.478,0.477,0.477,0.477,0.477,0.477,0.478,0.478,0.479,0.479,0.48,0.481,0.481,0.482,0.483,0.483,0.484,0.485,0.485,0.486,0.487,0.488,0.489,0.49,0.491,0.492,0.494,0.495,0.497,0.499,0.5,0.502,0.504,0.505,0.507,0.508,0.51,0.512,0.514,0.515,0.517,0.519,0.52,0.521,0.522,0.523,0.524,0.525,0.527,0.528,0.53,0.531,0.533,0.534,0.535,0.537,0.538,0.54,0.541,0.542,0.544,0.546,0.547,0.548,0.549,0.549,0.55,0.551,0.551,0.552,0.553,0,0,0,0,0,0,0,0,0,0,0,0,0,0,0,0,0,0,0,0,0,0,0,0,0,0,0,0,0,0,0,0,0,0,0,0,0,0,0,0,0,0,0,0,0,0,0,0,0,0.715,0.715,0.713,0.713,0.711,0.71,0.71,0.709,0.709,0.709,0.709,0.709,0.709,0.71,0.714,0.718,0,0.726,0.73,0.733,0.736,0.737,0.738,0.738,0.738,0.737,0.737,0.736,0.735,0.734,0.733,0.732,0.731,0.729,0.728,0.726,0.725,0.724,0.723,0.722,0.721,0.721,0.72,0.718,0.717,0.716,0.715,0.713,0.712,0.711,0.71,0.709,0.709,0.709,0.711,0.714,0.716,0.719,0.722,0.724,0.727,0.728,0.73,0.731,0.731,0.731,0.732,0.732,0.732,0.732,0.733,0.733,0.733,0.733,0.734,0.734,0.734,0.735,0.735,0.735,0.735,0.736,0.736,0.736,0.737,0.737,0.737,0.737,0.737,0.738,0.738,0.739,0.739,0.739,0.74,0.74,0.739,0.739,0.74,0.74,0.74,0.74,0.74,0.74,0.74,0.74,0.74,0.74,0.739,0.739,0.739,0.739,0.739,0.739,0.739,0.739,0.739,0.74,0.739,0.74,0.74,0.74,0.741,0.741,0.741,0.742,0.742,0.742,0.743,0.743,0.744,0.744,0.745,0.746,0.747,0.748,0.749,0.751,0.752,0.753,0.754,0.756,0.757,0.759,0.76,0.761,0.763,0.764,0.766,0.767,0.769,0.769,0.771,0.771,0.773,0.774,0.776,0.776,0.777,0.779,0.78,0.782,0.783,0.784,0.785,0.787,0.788,0.789,0.79,0.791,0.792,0.793,0.794,0.795,0.796,0.798,0.802,0.807,0.811,0.815,0.82,0.825,0.83,0.834,0.837,0.839,0.84,0.842,0.844,0.845,0.846,0.847,0.847,0.847,0.847,0.847,0.847,0.847,0.846,0.845,0.844,0.843,0.842,0.842,0.841,0,3.379,3.368,3.358,3.358,3.348,3.338,3.328,3.328,3.308,3.308,3.298,3.288,3.269,3.259,3.24,3.231,3.222,3.212,3.194,3.175,3.166,3.148,3.139,3.122,3.113,3.096,3.087,3.07,3.07,3.061,3.053,3.045,3.036,3.028,3.02,3.011,2.995,2.987,2.979,2.963,2.955,2.94,2.924,2.916,2.901,2.886,2.871,2.856,2.842,2.827,2.82,2.813,2.806,2.799,2.791,2.784,2.784,2.777,2.771,2.771,2.764,2.757,2.757,2.75,2.743,2.736,2.723,2.716,2.71,2.703,2.696,2.683,2.677,2.67,2.658,2.645,2.639,2.626,2.62,2.614,2.601,2.595,2.589,2.583,2.571,2.565,2.559,2.548,2.542,2.53,2.524,2.513,2.507,2.502,2.496,2.49,2.479,2.474,2.468,2.457,2.452,2.446,2.436,2.43,2.425,2.42,2.414,2.409,2.404,2.399,2.394,2.394,2.388,2.383,2.378,2.378,2.373,2.368,2.363,2.358,2.348,2.343
0,0,0,0,0,0,0,0,0,0,0,0,0,0,0,0,0,0,0,0,0,0,0,0,0,0,0,0,0,0,0,0,0,0,0,0,0,0,0.529,0.528,0.528,0.528,0.527,0.527,0.526,0.526,0.526,0.525,0.525,0.525,0.525,0.525,0.524,0.524,0.523,0.522,0.522,0.521,0.52,0.519,0.518,0.517,0.516,0.514,0.513,0.512,0.51,0.509,0.507,0.505,0.503,0.501,0.499,0.498,0.496,0.495,0.493,0.492,0.491,0.49,0.489,0.488,0.487,0.486,0.485,0.484,0.483,0.482,0.481,0.481,0.48,0.48,0.479,0.479,0.479,0.479,0.479,0.479,0.479,0.479,0.479,0.48,0.48,0.481,0.481,0.482,0.483,0.484,0.484,0.485,0.485,0.486,0.487,0.488,0.489,0.49,0.491,0.492,0.493,0.494,0.495,0.497,0.498,0.5,0.501,0.503,0.504,0.506,0.507,0.509,0.51,0.512,0.514,0.515,0.517,0.518,0.52,0.521,0.522,0.523,0.524,0.525,0.526,0.528,0.529,0.531,0.532,0.534,0.535,0.537,0.538,0.539,0.541,0.542,0.544,0.546,0.548,0.549,0.549,0.55,0.551,0.552,0.552,0.552,0,0,0,0,0,0,0,0,0,0,0,0,0,0,0,0,0,0,0,0,0,0,0,0,0,0,0,0,0,0,0,0,0,0,0,0,0,0,0,0,0,0,0,0,0,0,0,0,0,0,0,0,0.714,0.713,0.712,0.711,0.711,0.71,0.71,0.71,0.71,0.709,0.709,0.711,0.714,0.717,0.721,0.724,0,0.73,0.732,0.734,0.734,0.735,0.735,0.734,0.734,0.733,0.732,0.732,0.731,0.73,0.73,0.728,0.726,0.726,0.724,0.724,0.723,0.722,0.721,0.721,0.719,0.718,0.717,0.716,0.715,0.713,0.712,0.712,0.711,0.71,0.709,0.711,0.713,0.715,0.718,0.722,0.724,0.727,0.729,0.73,0.731,0.731,0.731,0.732,0.732,0.732,0.733,0.733,0.733,0.733,0.733,0.734,0.734,0.734,0.734,0.735,0.735,0.735,0.736,0.736,0.736,0.737,0.737,0.737,0.737,0.738,0.738,0.739,0.739,0.739,0.739,0.74,0.74,0.74,0.739,0.739,0.74,0.74,0.74,0.74,0.74,0.74,0.74,0.74,0.74,0.739,0.739,0.739,0.739,0.739,0.739,0.739,0.739,0.739,0.739,0.739,0.74,0.74,0.74,0.74,0.741,0.741,0.741,0.742,0.742,0.743,0.743,0.744,0.744,0.745,0.746,0.747,0.748,0.749,0.751,0.752,0.753,0.754,0.755,0.756,0.758,0.759,0.76,0.762,0.763,0.764,0.766,0.766,0.768,0.769,0.77,0.771,0.772,0.773,0.774,0.776,0.777,0.778,0.779,0.78,0.782,0.783,0.784,0.785,0.786,0.787,0.788,0.789,0.79,0.791,0.792,0.793,0.793,0.795,0.798,0.802,0.807,0.81,0.814,0.819,0.824,0.829,0.831,0.834,0.836,0.838,0.84,0.842,0.843,0.844,0.845,0.845,0.845,0.845,0.845,0.844,0.845,0.843,0.843,0.842,0.841,0.84,0.84,0,0,3.368,3.358,3.348,3.348,3.338,3.328,3.318,3.308,3.298,3.298,3.279,3.259,3.25,3.24,3.222,3.212,3.203,3.194,3.175,3.166,3.148,3.139,3.131,3.113,3.096,3.087,3.07,3.07,3.061,3.053,3.045,3.036,3.028,3.02,3.003,2.995,2.987,2.979,2.963,2.955,2.947,2.932,2.916,2.901,2.886,2.871,2.856,2.842,2.827,2.82,2.813,2.806,2.799,2.791,2.784,2.784,2.777,2.771,2.771,2.764,2.764,2.757,2.75,2.743,2.736,2.73,2.716,2.71,2.703,2.696,2.683,2.677,2.664,2.658,2.645,2.639,2.626,2.62,2.614,2.601,2.595,2.589,2.583,2.577,2.565,2.559,2.553,2.542,2.536,2.53,2.519,2.513,2.507,2.502,2.496,2.485,2.479,2.474,2.468,2.457,2.452,2.441,2.436,2.43,2.42,2.414,2.409,2.404,2.404,2.399,2.394,2.388,2.388,2.383,2.378,2.373,2.368,2.363,2.358,2.348,2.343
0,0,0,0,0,0,0,0,0,0,0,0,0,0,0,0,0,0,0,0,0,0,0,0,0,0,0,0,0,0,0,0,0,0,0,0,0,0,0,0,0.528,0.528,0.527,0.527,0.526,0.526,0.526,0.526,0.526,0.526,0.526,0.525,0.525,0.525,0.524,0.524,0.523,0.523,0.522,0.521,0.52,0.519,0.518,0.517,0.515,0.514,0.513,0.511,0.509,0.507,0.505,0.503,0.501,0.499,0.498,0.496,0.495,0.493,0.492,0.491,0.49,0.489,0.488,0.487,0.486,0.485,0.484,0.483,0.482,0.481,0.481,0.48,0.48,0.48,0.48,0.48,0.48,0.48,0.48,0.48,0.48,0.481,0.481,0.482,0.482,0.483,0.484,0.485,0.486,0.486,0.487,0.488,0.489,0.49,0.491,0.492,0.492,0.494,0.495,0.496,0.497,0.499,0.5,0.501,0.502,0.504,0.505,0.506,0.507,0.509,0.51,0.512,0.514,0.516,0.517,0.518,0.52,0.521,0.522,0.523,0.524,0.525,0.526,0.527,0.529,0.53,0.532,0.533,0.534,0.536,0.537,0,0,0,0,0,0,0,0,0,0,0,0,0,0,0,0,0,0,0,0,0,0,0,0,0,0,0,0,0,0,0,0,0,0,0,0,0,0,0,0,0,0,0,0,0,0,0,0,0,0,0,0,0,0,0,0,0,0,0,0,0,0,0,0,0,0.713,0.713,0.712,0.712,0.711,0.711,0.711,0.711,0.711,0.711,0.711,0.712,0.714,0.717,0.719,0,0.724,0.727,0.729,0.731,0.731,0.731,0.732,0.731,0.731,0.731,0.73,0.73,0.729,0.729,0.728,0.726,0.726,0.725,0.724,0.723,0.722,0.721,0.721,0.72,0.72,0.719,0.718,0.716,0.715,0.715,0.714,0.713,0.713,0.713,0.713,0.715,0.716,0.72,0.722,0.725,0.727,0.729,0.73,0.731,0.732,0.732,0.732,0.733,0.733,0.733,0.733,0.734,0.734,0.734,0.734,0.734,0.734,0.735,0.735,0.735,0.735,0.735,0.736,0.736,0.736,0.737,0.737,0.737,0.737,0.738,0.738,0.739,0.739,0.74,0.74,0.74,0.74,0.74,0.739,0.739,0.739,0.74,0.74,0.74,0.739,0.74,0.739,0.739,0.739,0.739,0.738,0.738,0.738,0.738,0.738,0.738,0.738,0.739,0.739,0.739,0.739,0.74,0.74,0.741,0.741,0.741,0.742,0.742,0.743,0.743,0.744,0.744,0.745,0.746,0.747,0.748,0.749,0.75,0.752,0.753,0.754,0.755,0.756,0.757,0.759,0.76,0.76,0.762,0.762,0.764,0.765,0.766,0.767,0.768,0.769,0.77,0.771,0.773,0.774,0.775,0.776,0.777,0.779,0.78,0.781,0.782,0.783,0.784,0.785,0.785,0.786,0.787,0.788,0.789,0.789,0.79,0.79,0.792,0.795,0.798,0.802,0.805,0.81,0.814,0.818,0.823,0.826,0.828,0.831,0.833,0.836,0.838,0.84,0.841,0.842,0.843,0.843,0.843,0.843,0.843,0.842,0.842,0.841,0.841,0.84,0.84,0.839,0,0,0,3.358,3.348,3.338,3.338,3.328,3.318,3.308,3.298,3.288,3.279,3.259,3.25,3.231,3.222,3.212,3.203,3.185,3.175,3.157,3.148,3.139,3.122,3.113,3.096,3.087,3.07,3.07,3.061,3.053,3.045,3.036,3.028,3.02,3.003,2.995,2.987,2.979,2.963,2.955,2.947,2.932,2.916,2.909,2.894,2.878,2.864,2.849,2.834,2.82,2.813,2.806,2.799,2.791,2.791,2.784,2.777,2.777,2.771,2.764,2.764,2.757,2.75,2.743,2.736,2.73,2.716,2.71,2.703,2.696,2.683,2.677,2.664,2.651,2.645,2.639,2.626,2.62,2.614,2.601,2.595,2.589,2.583,2.577,2.571,2.559,2.553,2.548,2.536,2.53,2.524,2.519,2.513,2.502,2.496,2.49,2.485,2.474,2.468,2.463,2.457,2.446,2.441,2.43,2.425,2.42,2.414,2.409,2.404,2.399,2.399,2.394,2.388,2.383,2.378,2.373,2.368,2.363,2.358,2.348,2.343
0,0,0,0,0,0,0,0,0,0,0,0,0,0,0,0,0,0,0,0,0,0,0,0,0,0,0,0,0,0,0,0,0,0,0,0,0,0,0,0,0,0.527,0.527,0.527,0.527,0.527,0.526,0.526,0.526,0.526,0.526,0.526,0.526,0.526,0.525,0.525,0.524,0.524,0.523,0.522,0.522,0.521,0.52,0.519,0.517,0.516,0.514,0.513,0.511,0.509,0.507,0.505,0.503,0.501,0.499,0.497,0.496,0.495,0.493,0.492,0.491,0.49,0.489,0.488,0.487,0.486,0.485,0.484,0.483,0.482,0.482,0.481,0.481,0.481,0.481,0.481,0.481,0.481,0.481,0.481,0.482,0.482,0.483,0.483,0.484,0.485,0.486,0.486,0.487,0.488,0.489,0.49,0.491,0.492,0.493,0.493,0.494,0.495,0.497,0.498,0.499,0.5,0.501,0.502,0.503,0.504,0.505,0.506,0.508,0.509,0.511,0.512,0.514,0.515,0.517,0.518,0.519,0.521,0.522,0.522,0.523,0.525,0.526,0.527,0.528,0.529,0.531,0.532,0.533,0.535,0,0,0,0,0,5.486,5.486,5.486,5.513,5.569,5.625,5.625,0,0,5.654,5.625,5.625,0,5.625,5.597,0,0,0,0,0,0,0,0,0,0,0,0,0,0,0,0,0,0,0,0,0,0,0,0,0,0,0,0,0,0,0,0,0,0,0,0,0,0,0,0,0,0,0,0,0,0,0,0,0.713,0.712,0.712,0.711,0.711,0.711,0.712,0.712,0.711,0.713,0.715,0.716,0.718,0.721,0.722,0.724,0.726,0.727,0.728,0.728,0.729,0.728,0.728,0.728,0.728,0.728,0.727,0.726,0.726,0.725,0.724,0.723,0.723,0.722,0.722,0.721,0.721,0.72,0.72,0.719,0.718,0.717,0.716,0.716,0.715,0.715,0.715,0.716,0.716,0,0,0,0.725,0.727,0.729,0.731,0.731,0.732,0.732,0.733,0.733,0.733,0.733,0.734,0.734,0.734,0.735,0.735,0.735,0.735,0.735,0.735,0.735,0.735,0.735,0.736,0.736,0.736,0.737,0.737,0.737,0.737,0.738,0.738,0.738,0.739,0.739,0.739,0.74,0.74,0.74,0.74,0.74,0.739,0.739,0.74,0.74,0.739,0.739,0.739,0.739,0.739,0.738,0.738,0.738,0.738,0.738,0.738,0.738,0.738,0.738,0.739,0.739,0.739,0.74,0.74,0.74,0.741,0.741,0.742,0.742,0.743,0.743,0.744,0.744,0.745,0.746,0.747,0.748,0.749,0.75,0.751,0.752,0.753,0.754,0.755,0.756,0.757,0.759,0.76,0.76,0.761,0.762,0.763,0.764,0.765,0.766,0.767,0.768,0.77,0.771,0.772,0.773,0.774,0.775,0.777,0.778,0.779,0.78,0.781,0.782,0.783,0.783,0.784,0.784,0.785,0.786,0.787,0.787,0.787,0.788,0.789,0.792,0.796,0.798,0.801,0.805,0.809,0.814,0.818,0.821,0.823,0.826,0.829,0.832,0.834,0.835,0.837,0.838,0.84,0.84,0.841,0.841,0.841,0.84,0.84,0.84,0.839,0.838,0.838,0.838,0.838,0.838,0.837,0,0,3.338,3.338,3.328,3.318,3.298,3.288,3.279,3.269,3.25,3.24,3.231,3.212,3.203,3.194,3.175,3.166,3.157,3.148,3.131,3.122,3.104,3.096,3.078,3.07,3.07,3.061,3.053,3.045,3.036,3.02,3.011,3.003,2.995,2.987,2.971,2.963,2.955,2.947,2.94,2.924,2.909,2.901,2.886,2.871,2.856,2.842,2.827,2.82,2.813,2.806,2.799,2.791,2.784,2.784,2.777,2.771,2.771,2.764,2.757,2.75,2.743,2.736,2.73,2.716,2.71,2.703,2.696,2.683,2.67,2.664,2.651,2.645,2.639,2.632,2.62,2.614,2.608,2.595,2.589,2.583,2.577,2.571,2.565,2.553,2.548,2.542,2.536,2.524,2.519,2.513,2.507,2.502,2.49,2.485,2.479,2.474,2.468,2.457,2.452,2.441,2.436,2.43,2.42,2.414,2.409,2.404,2.404,2.399,2.394,2.388,2.383,2.378,2.373,2.368,2.363,2.353,2.348,2.343
0,0,0,0,0,0,0,0,0,0,0,0,0,0,0,0,0,0,0,0,0,0,0,0,0,0,0,0,0,0,0,0,0,0,0,0,0,0,0,0,0,0,0.527,0.527,0.527,0.527,0.527,0.527,0.527,0.527,0.527,0.527,0.526,0.526,0.526,0.526,0.525,0.525,0.524,0.524,0.523,0.522,0.521,0.52,0.519,0.518,0.516,0.515,0.513,0.511,0.509,0.507,0.505,0.503,0.501,0.499,0.497,0.496,0.495,0.493,0.492,0.49,0.489,0.488,0.487,0.486,0.485,0.484,0.484,0.483,0.482,0.482,0.481,0.481,0.481,0.481,0.481,0.482,0.482,0.482,0.483,0.483,0.484,0.485,0.485,0.486,0.487,0.488,0.489,0.49,0.491,0.491,0.493,0.493,0.495,0.495,0.496,0.497,0.498,0.499,0.5,0.501,0.502,0.503,0.504,0.505,0.506,0.507,0.508,0.51,0.511,0.512,0.514,0.515,0.517,0.518,0.519,0.52,0.521,0.522,0.522,0.524,0.525,0.526,0.527,0.528,0.529,0.531,0.533,0,0,0,0,0,0,0,0,5.569,5.597,5.625,5.683,5.683,5.683,5.712,5.712,5.683,5.683,5.683,5.683,5.654,0,0,0,0,0,0,0,0,0,0,0,0,0,0,0,0,0,0,0,0,0,0,0,0,0,0,0,0,0,0,0,0,0,0,0,0,0,0,0,0,0,0,0,0,0,0,0,0,0.713,0.713,0.712,0.712,0.712,0.712,0.712,0.712,0.713,0.713,0.714,0.715,0.716,0.718,0.72,0.721,0.722,0.723,0.724,0.725,0.725,0.725,0.725,0.725,0.725,0.725,0.725,0.725,0.724,0.724,0.723,0.722,0.722,0.721,0.721,0.721,0.72,0.721,0.72,0.72,0.719,0.718,0.718,0.718,0.718,0.719,0.719,0.72,0,0,0,0,0.729,0.73,0.731,0.732,0.732,0.732,0.733,0.733,0.734,0.734,0.734,0.734,0.735,0.735,0.735,0.735,0.735,0.735,0.735,0.735,0.736,0.736,0.736,0.736,0.736,0.737,0.737,0.737,0.737,0.738,0.738,0.738,0.739,0.739,0.74,0.74,0.74,0.74,0.74,0.74,0.739,0.739,0.739,0.739,0.739,0.739,0.738,0.738,0.738,0.738,0.738,0.737,0.737,0.737,0.737,0.737,0.737,0.738,0.738,0.738,0.739,0.739,0.74,0.74,0.741,0.742,0.742,0.743,0.743,0.744,0.744,0.745,0.745,0.746,0.747,0.748,0.749,0.749,0.75,0.751,0.753,0.754,0.755,0.755,0.756,0.757,0.759,0.76,0.76,0.761,0.762,0.763,0.763,0.765,0.765,0.766,0.767,0.769,0.77,0.771,0.772,0.773,0.774,0.776,0.777,0.778,0.779,0.78,0.781,0.782,0.782,0.782,0.783,0.783,0.784,0.785,0.785,0.785,0.786,0.788,0.79,0.792,0.794,0.797,0.801,0.804,0.808,0.812,0.815,0.818,0.822,0.825,0.828,0.83,0.832,0.833,0.835,0.836,0.838,0.838,0.838,0.838,0.838,0.838,0.838,0.837,0.836,0.836,0.836,0.836,0.836,0.836,0.834,0.834,0,0,3.328,3.318,3.298,3.288,3.279,3.259,3.24,3.231,3.222,3.212,3.203,3.185,3.175,3.157,3.148,3.139,3.131,3.113,3.104,3.096,3.078,3.07,3.07,3.061,3.053,3.036,3.028,3.02,3.011,3.003,2.995,2.987,2.979,2.971,2.963,2.955,2.94,2.924,2.916,2.901,2.886,2.871,2.864,2.849,2.834,2.827,2.813,2.806,2.799,2.799,2.791,2.784,2.777,2.771,2.771,2.764,2.757,2.75,2.743,2.736,2.73,2.716,2.71,2.703,2.69,2.677,2.67,2.664,2.651,2.645,2.639,2.632,2.62,2.614,2.608,2.601,2.595,2.583,2.577,2.571,2.565,2.559,2.553,2.542,2.536,2.53,2.524,2.519,2.507,2.502,2.496,2.49,2.485,2.474,2.468,2.463,2.452,2.446,2.441,2.43,2.425,2.42,2.414,2.409,2.404,2.399,2.394,2.388,2.383,2.378,2.373,2.368,2.358,2.353,2.348,2.338
0,0,0,0,0,0,0,0,0,0,0,0,0,0,0,0,0,0,0,0,0,0,0,0,0,0,0,0,0,0,0,0,0,0,0,0,0,0,0,0,0,0,0.527,0.526,0.527,0.527,0.527,0.527,0.527,0.527,0.527,0.527,0.527,0.527,0.527,0.527,0.526,0.526,0.526,0.525,0.524,0.523,0.522,0.522,0.52,0.519,0.518,0.516,0.514,0.513,0.511,0.509,0.507,0.505,0.503,0.501,0.499,0.497,0.496,0.495,0.493,0.491,0.49,0.489,0.488,0.487,0.486,0.485,0.484,0.484,0.483,0.483,0.482,0.482,0.482,0.482,0.482,0.482,0.483,0.483,0.484,0.485,0.485,0.486,0.487,0.488,0.489,0.489,0.49,0.491,0.492,0.493,0.494,0.495,0.496,0.497,0.498,0.499,0.5,0.501,0.501,0.502,0.503,0.504,0.504,0.505,0.506,0.507,0.508,0.51,0.511,0.512,0.514,0.515,0.516,0.517,0.518,0.519,0.52,0.521,0.522,0.522,0.524,0.525,0.526,0.527,0.528,0,0,0,0,0,0,0,5.625,5.625,5.625,5.625,5.625,5.683,5.712,5.712,5.712,5.742,5.742,5.712,5.712,5.712,5.712,5.683,5.683,0,0,0,0,0,0,0,0,0,0,0,0,0,0,0,0,0,0,0,0,0,0,0,0,0,0,0,0,0,0,0,0,0,0,0,0,0,0,0,0,0,0,0,0,0,0,0.714,0.713,0.712,0.712,0.713,0.713,0.712,0.713,0.713,0.713,0.714,0.713,0.714,0.715,0.716,0.717,0.718,0.719,0.72,0.721,0.721,0.722,0.722,0.722,0.723,0.723,0.723,0.723,0.723,0.723,0.723,0.722,0.722,0.721,0.721,0.721,0.721,0.721,0.721,0.721,0.72,0.72,0.72,0.72,0.721,0.721,0.722,0.722,0.724,0,0,0,0,0,0.732,0.732,0.733,0.733,0.733,0.734,0.734,0.734,0.734,0.735,0.735,0.735,0.735,0.735,0.735,0.735,0.736,0.736,0.736,0.736,0.736,0.736,0.736,0.737,0.737,0.737,0.738,0.737,0.738,0.738,0.738,0.739,0.739,0.74,0.74,0.74,0.74,0.74,0.74,0.739,0.739,0.739,0.739,0.739,0.738,0.738,0.738,0.738,0.738,0.737,0.737,0.737,0.737,0.737,0.737,0.737,0.737,0.738,0.739,0.739,0.74,0.74,0.741,0.742,0.742,0.743,0.743,0.744,0.745,0.745,0.746,0.746,0.747,0.748,0.748,0.749,0.75,0.751,0.752,0.753,0.754,0.755,0.755,0.756,0.757,0.758,0.759,0.76,0.761,0.761,0.762,0.763,0.764,0.765,0.766,0.767,0.769,0.77,0.771,0.772,0.773,0.774,0.776,0.777,0.778,0.778,0.779,0.779,0.78,0.78,0.781,0.781,0.782,0.782,0.783,0.783,0.783,0.784,0.785,0.787,0.789,0.791,0.793,0.796,0.8,0.804,0.808,0.811,0.814,0.817,0.821,0.824,0.826,0.828,0.83,0.832,0.833,0.834,0.834,0.834,0.834,0.834,0.834,0.834,0.834,0.834,0.833,0.833,0.834,0.833,0.833,0,0,0.831,0,0,3.298,3.298,3.279,3.269,3.25,3.231,3.222,3.203,3.194,3.185,3.175,3.157,3.148,3.139,3.131,3.122,3.113,3.104,3.087,3.078,3.07,3.061,3.053,3.045,3.036,3.028,3.02,3.011,3.003,2.995,2.987,2.979,2.971,2.963,2.955,2.94,2.932,2.916,2.909,2.894,2.878,2.864,2.856,2.842,2.834,2.827,2.813,2.806,2.799,2.799,2.791,2.784,2.777,2.771,2.764,2.757,2.75,2.743,2.736,2.723,2.716,2.71,2.696,2.69,2.677,2.67,2.664,2.651,2.645,2.639,2.632,2.626,2.614,2.608,2.601,2.595,2.589,2.577,2.571,2.565,2.559,2.553,2.548,2.542,2.53,2.524,2.519,2.513,2.502,2.496,2.49,2.485,2.479,2.474,2.463,2.457,2.446,2.441,2.436,2.425,2.42,2.414,2.409,2.404,2.399,2.394,2.388,2.383,2.378,2.373,2.368,2.358,2.353,2.348,2.338
0,0,0,0,0,0,0,0,0,0,0,0,0,0,0,0,0,0,0,0,0,0,0,0,0,0,0,0,0,0,0,0,0,0,0,0,0,0,0,0,0,0,0.526,0.526,0.526,0.526,0.526,0.527,0.527,0.527,0.527,0.528,0.528,0.528,0.528,0.528,0.527,0.527,0.527,0.526,0.525,0.525,0.524,0.523,0.522,0.52,0.519,0.517,0.516,0.514,0.512,0.51,0.509,0,0.505,0.503,0.501,0.499,0.498,0.496,0.494,0.493,0.491,0.49,0.488,0.487,0.486,0.486,0.485,0.484,0.484,0.484,0.483,0.483,0.483,0.483,0.483,0.484,0.484,0.484,0.485,0.486,0.486,0.487,0.488,0.489,0.49,0.491,0.492,0.493,0.494,0.495,0.496,0.497,0.498,0.499,0.499,0.5,0.501,0.502,0.502,0.503,0.504,0.504,0.505,0.506,0.506,0.508,0.509,0.51,0.511,0.512,0.514,0.514,0.516,0.517,0.517,0.518,0.519,0.52,0.52,0.522,0.522,0.524,0.524,0.526,0.527,0,0,0,0,0,0,0,5.654,5.683,5.683,5.683,5.683,5.712,5.742,5.772,5.772,5.772,5.772,5.772,5.772,5.742,5.742,5.712,5.712,5.712,5.712,0,0,0,0,0,0,0,0,0,0,0,0,0,0,0,0,0,0,0,0,0,0,0,0,0,0,0,0,0,0,0,0,0,0,0,0,0,0,0,0,0,0,0,0,0,0.713,0.713,0.713,0.713,0.713,0.712,0.713,0.713,0.713,0.713,0.714,0.715,0.715,0.715,0.715,0.716,0.717,0.717,0.719,0.719,0.72,0.721,0.721,0.721,0.722,0.722,0.723,0.723,0.722,0.723,0.722,0.722,0.722,0.721,0.721,0.721,0.721,0.721,0.721,0.721,0.721,0.722,0.722,0.723,0.724,0.726,0.727,0.728,0.729,0.731,0.732,0.734,0.734,0.734,0.734,0.734,0.734,0.735,0.735,0.735,0.735,0.735,0.735,0.735,0.735,0.736,0.736,0.736,0.736,0.735,0.735,0.736,0.736,0.736,0.736,0.736,0.737,0.737,0.737,0.738,0.738,0.738,0.738,0.739,0.739,0.739,0.739,0.74,0.74,0.74,0.74,0.74,0.739,0.739,0.739,0.738,0.738,0.738,0.738,0.738,0.738,0.738,0.737,0.737,0.737,0.737,0.737,0.737,0.737,0.738,0.738,0.739,0.739,0.74,0.741,0.741,0.742,0.743,0.743,0.744,0.744,0.745,0.746,0.746,0.747,0.748,0.748,0.749,0.75,0.75,0.751,0.752,0.753,0.754,0.755,0.755,0.756,0.757,0.758,0.759,0.76,0.76,0.761,0.762,0.763,0.763,0.764,0.765,0.766,0.767,0.769,0.77,0.771,0.772,0.774,0.775,0.776,0.777,0.777,0.778,0.778,0.779,0.779,0.779,0.779,0.78,0.78,0.781,0.782,0.782,0.783,0.784,0.785,0.786,0.788,0.789,0.792,0.794,0.798,0.801,0.804,0.808,0.812,0.815,0.819,0.822,0.824,0.826,0.828,0.83,0.831,0.831,0.831,0.831,0.832,0.832,0.832,0.832,0.831,0.832,0.831,0.831,0.831,0.83,0,0,0,0,0,0,3.279,3.259,3.25,3.24,3.222,3.212,3.194,3.185,3.175,3.166,3.148,3.139,3.131,3.122,3.113,3.104,3.096,3.087,3.078,3.07,3.061,3.053,3.045,3.036,3.028,3.02,3.011,3.003,2.995,2.987,2.979,2.971,2.963,2.955,2.947,2.932,2.924,2.909,2.901,2.886,2.871,2.856,2.849,2.842,2.834,2.82,2.813,2.806,2.799,2.791,2.784,2.777,2.771,2.764,2.757,2.75,2.743,2.73,2.723,2.716,2.703,2.696,2.683,2.677,2.67,2.664,2.651,2.645,2.639,2.632,2.626,2.62,2.614,2.601,2.595,2.589,2.583,2.571,2.565,2.559,2.553,2.548,2.542,2.53,2.524,2.519,2.513,2.507,2.496,2.49,2.485,2.479,2.474,2.463,2.457,2.452,2.441,2.436,2.43,2.42,2.414,2.409,2.404,2.399,2.394,2.388,2.383,2.378,2.373,2.363,2.358,2.353,2.343,2.338
0,0,0,0,0,0,0,0,0,0,0,0,0,0,0,0,0,0,0,0,0,0,0,0,0,0,0,0,0,0,0,0,0,0,0,0,0,0,0,0,0.525,0.525,0.525,0.525,0.525,0.526,0.526,0.527,0.527,0.527,0.527,0.528,0.528,0.528,0.528,0.528,0.528,0.528,0.528,0.527,0.527,0.526,0.525,0.524,0.523,0.522,0.52,0.518,0.517,0.515,0.514,0.512,0.51,0.508,0.506,0.505,0.503,0.502,0.5,0.498,0.496,0.494,0.493,0.491,0.49,0.489,0.488,0.487,0.486,0.485,0.485,0.484,0.484,0.484,0.484,0.484,0.484,0.485,0.485,0.485,0.486,0.487,0.488,0.489,0.49,0.491,0.491,0.492,0.493,0.495,0.495,0.496,0.497,0.498,0.499,0.5,0.501,0.502,0.502,0.503,0.504,0.504,0.504,0.505,0.506,0.506,0.507,0.508,0.509,0.51,0.511,0.512,0.513,0.514,0.515,0.516,0.516,0.517,0.518,0.519,0.519,0.521,0.522,0.522,0.524,0.525,0,0,0,0,0,5.683,5.712,5.712,5.712,5.712,5.712,5.712,5.712,5.772,5.772,5.772,5.802,5.802,5.802,5.802,5.802,5.772,5.772,5.772,5.742,5.742,5.742,5.742,5.772,0,0,0,0,0,0,0,0,0,0,0,0,0,0,0,0,0,0,0,0,0,0,0,0,0,0,0,0,0,0,0,0,0,0,0,0,0,0,0,0,0,0,0,0,0,0,0.713,0.713,0.713,0.713,0.713,0.713,0.714,0.714,0.714,0.714,0.715,0.715,0.715,0.716,0.717,0.717,0.718,0.719,0.719,0.72,0.721,0.721,0.722,0.722,0.722,0.722,0.722,0.722,0.722,0.721,0.721,0.721,0.721,0.721,0.722,0.722,0.723,0.724,0.724,0.725,0.727,0.728,0.73,0.731,0.732,0.733,0.734,0.736,0.736,0.736,0.736,0.736,0.736,0.735,0.736,0.736,0.736,0.736,0.736,0.736,0.736,0.736,0.737,0.737,0.736,0.736,0.736,0.736,0.736,0.736,0.736,0.736,0.736,0.737,0.737,0.738,0.738,0.738,0.738,0.738,0.739,0.739,0.739,0.739,0.74,0.74,0.74,0.74,0.74,0.739,0.739,0.739,0.738,0.738,0.738,0.738,0.738,0.738,0.738,0.737,0.737,0.737,0.737,0.737,0.738,0.738,0.738,0.739,0.739,0.74,0.741,0.742,0.742,0.743,0.743,0.744,0.745,0.745,0.746,0.746,0.747,0.747,0.748,0.749,0.749,0.75,0.751,0.752,0.753,0.753,0.754,0.754,0.755,0.755,0.756,0.757,0.758,0.759,0.759,0.761,0.761,0.762,0.763,0.764,0.765,0.766,0.767,0.769,0.77,0.771,0.772,0.773,0.774,0.775,0.776,0.776,0.776,0.777,0.777,0.777,0.778,0.778,0.778,0.779,0.779,0.78,0.78,0.782,0.782,0.783,0.784,0.785,0.786,0.788,0.791,0.794,0.796,0.8,0.802,0.807,0.81,0.814,0.818,0.82,0.822,0.824,0.826,0.827,0.827,0.828,0.828,0.829,0.829,0.83,0.83,0.83,0.83,0.83,0.83,0.829,0.828,0,0,0,0,0,0,0,3.25,3.24,3.231,3.212,3.194,3.185,3.175,3.166,3.157,3.139,3.131,3.122,3.113,3.104,3.096,3.087,3.078,3.07,3.061,3.053,3.053,3.045,3.036,3.028,3.02,3.011,3.003,2.995,2.987,2.979,2.971,2.963,2.955,2.947,2.94,2.924,2.916,2.909,2.894,2.878,2.864,2.856,2.842,2.834,2.827,2.82,2.813,2.806,2.799,2.784,2.777,2.771,2.764,2.757,2.75,2.736,2.73,2.716,2.71,2.703,2.69,2.683,2.677,2.67,2.658,2.651,2.645,2.639,2.632,2.626,2.62,2.614,2.601,2.595,2.589,2.583,2.571,2.565,2.559,2.553,2.548,2.542,2.536,2.53,2.519,2.513,2.507,2.502,2.496,2.485,2.479,2.474,2.463,2.457,2.452,2.446,2.436,2.43,2.425,2.414,2.409,2.404,2.399,2.394,2.388,2.383,2.378,2.373,2.363,2.358,2.353,2.343,2.338
0,0,0,0,0,0,0,0,0,0,0,0,0,0,0,0,0,0,0,0,0,0,0,0,0,0,0,0,0,0,0,0,0,0,0,0,0,0,0,0,0,0.525,0.525,0.525,0.525,0.525,0.525,0.526,0.527,0.527,0.528,0.528,0.528,0.529,0.529,0.529,0.529,0.529,0.529,0.528,0.528,0.527,0.526,0.525,0.524,0.523,0.521,0.519,0.518,0.516,0.514,0.513,0.511,0.509,0.508,0.506,0.505,0,0.502,0.5,0.499,0.497,0.495,0.493,0.492,0.491,0.489,0.489,0.488,0.487,0.486,0.486,0.485,0.485,0.485,0.485,0.485,0.486,0.486,0.487,0.488,0.488,0.489,0.49,0.491,0.492,0.493,0.494,0.495,0.496,0.497,0.498,0.499,0.5,0.501,0.502,0.502,0.503,0.503,0.504,0.504,0.505,0.505,0.506,0.506,0.507,0.508,0.509,0.509,0.51,0.511,0.512,0.513,0.514,0.514,0.515,0.516,0.516,0.517,0.517,0.518,0.519,0.52,0,0,0,0,0,0,0,5.802,5.833,5.864,5.833,5.864,5.864,5.833,5.833,5.833,5.833,5.864,5.864,5.864,5.864,5.864,5.833,5.833,5.833,5.833,5.802,5.802,5.772,5.772,5.772,5.772,5.772,0,0,0,0,0,0,0,0,0,0,0,0,0,0,0,0,0,0,0,0,0,0,0,0,0,0,0,0,0,0,0,0,0,0,0,0,0,0,0,0,0,0,0,0,0,0.715,0.714,0.714,0.714,0.714,0.714,0.714,0.714,0.714,0.714,0.715,0.715,0.715,0.716,0.716,0.717,0.717,0.718,0.719,0.72,0.721,0.721,0.721,0.722,0.722,0.723,0.723,0.723,0.722,0.722,0.722,0.722,0.722,0.722,0.723,0.724,0.725,0.726,0.727,0.729,0.73,0.731,0.733,0.734,0.735,0.736,0.737,0.738,0.738,0.738,0.737,0.737,0.737,0.737,0.736,0.736,0.737,0.736,0.737,0.736,0.737,0.737,0.737,0.737,0.737,0.737,0.737,0.736,0.736,0.736,0.736,0.737,0.737,0.737,0.738,0.738,0.738,0.738,0.738,0.739,0.739,0.739,0.739,0.739,0.74,0.74,0.74,0.74,0.74,0.739,0.739,0.739,0.738,0.738,0.738,0.738,0.738,0.738,0.738,0.738,0.738,0.738,0.738,0.738,0.738,0.739,0.739,0.739,0.74,0.741,0.742,0.742,0.743,0.744,0.744,0.745,0.745,0.746,0.746,0.747,0.747,0.748,0.748,0.749,0.749,0.75,0.751,0.752,0.752,0.753,0.754,0.754,0.754,0.755,0.756,0.757,0.757,0.759,0.759,0.76,0.761,0.762,0.763,0.763,0.764,0.765,0.767,0.768,0.769,0.77,0.771,0.772,0.773,0.774,0.774,0.775,0.775,0.776,0.776,0.776,0.776,0.776,0.777,0.778,0.778,0.779,0.779,0.78,0.782,0.782,0.783,0.784,0.785,0.787,0.789,0.792,0.793,0.796,0.798,0.802,0.806,0.81,0.813,0.815,0.818,0.82,0.822,0.823,0.823,0.825,0.825,0.826,0.826,0.826,0.827,0.827,0.827,0.828,0.827,0.827,0.826,0.826,0.827,0.827,0.827,0.828,0,0,0,3.231,3.222,3.212,3.185,3.175,3.166,3.157,3.148,3.131,3.122,3.113,3.104,3.104,3.096,3.087,3.078,3.07,3.061,3.053,3.045,3.036,3.036,3.028,3.02,3.011,3.003,2.995,2.987,2.979,2.971,2.963,2.955,2.947,2.94,2.932,2.916,2.909,2.894,2.886,2.871,2.856,2.849,2.842,2.827,2.82,2.813,2.806,2.791,2.784,2.777,2.771,2.757,2.75,2.743,2.736,2.723,2.716,2.703,2.696,2.69,2.683,2.67,2.664,2.658,2.651,2.645,2.639,2.632,2.626,2.62,2.614,2.601,2.595,2.589,2.577,2.571,2.565,2.559,2.553,2.548,2.542,2.536,2.53,2.519,2.513,2.507,2.502,2.49,2.485,2.474,2.468,2.463,2.457,2.452,2.446,2.436,2.43,2.425,2.414,2.409,2.404,2.399,2.394,2.388,2.383,2.378,2.373,2.363,2.358,2.348,2.343,2.338
0,0,0,0,0,0,0,0,0,0,0,0,0,0,0,0,0,0,0,0,0,0,0,0,0,0,0,0,0,0,0,0,0,0,0,0,0,0,0,0,0,0,0.525,0.525,0.524,0.525,0.525,0.526,0.527,0.527,0.528,0.528,0.529,0.529,0.53,0.53,0.53,0.53,0.53,0.529,0.529,0.528,0.527,0.526,0.525,0.523,0.522,0.52,0.519,0.517,0.515,0.514,0.513,0.511,0.51,0.508,0.507,0.506,0.504,0.502,0.501,0.499,0.498,0.496,0.495,0.493,0.492,0.491,0.491,0.49,0.489,0.488,0.488,0.487,0.487,0.487,0.487,0.488,0.488,0.489,0.49,0.491,0.491,0.492,0.493,0.494,0.495,0.496,0.497,0.497,0.498,0.499,0.5,0.501,0.502,0.503,0.504,0.504,0.504,0.505,0.505,0.506,0.506,0.506,0.507,0.507,0.508,0.509,0.51,0.51,0.511,0.512,0.513,0.513,0.514,0.514,0.515,0.515,0.516,0.516,0.517,0.517,0,0,0,0,0,0,0,0,5.864,5.864,5.895,5.895,5.895,5.895,5.895,5.895,5.895,5.895,5.895,5.926,5.895,5.895,5.895,5.895,5.864,5.864,5.833,5.833,5.802,5.802,5.802,5.772,5.772,5.742,5.742,0,0,0,0,0,0,0,0,0,0,0,0,0,0,0,0,0,0,0,0,0,0,0,0,0,0,0,0,0,0,0,0,0,0,0,0,0,0,0,0,0,0,0,0,0,0,0.715,0.715,0.715,0.715,0.715,0.714,0.714,0.714,0.715,0.715,0.715,0.715,0.716,0.716,0.716,0.718,0.719,0.72,0.721,0.722,0.722,0.723,0.723,0.724,0.724,0.724,0.723,0.723,0.723,0.723,0.723,0.723,0.724,0.726,0.727,0.729,0.73,0.731,0.733,0.734,0.736,0.737,0.737,0.738,0.738,0.739,0.74,0.739,0.739,0.738,0.737,0.737,0.737,0.737,0.737,0.737,0.737,0.737,0.737,0.738,0.738,0.738,0.738,0.737,0.737,0.737,0.737,0.737,0.737,0.737,0.737,0.737,0.738,0.738,0.738,0.738,0.738,0.739,0.739,0.739,0.739,0.739,0.739,0.739,0.74,0.739,0.739,0.739,0.739,0.738,0.738,0.738,0.738,0.738,0.738,0.738,0.738,0.738,0.738,0.738,0.738,0.739,0.739,0.74,0.74,0.74,0.741,0.742,0.742,0.743,0.744,0.744,0.745,0.745,0.745,0.746,0.746,0.747,0.747,0.748,0.748,0.749,0.75,0.75,0.751,0.751,0.752,0.753,0.754,0.754,0.754,0.755,0.756,0.756,0.757,0.758,0.759,0.76,0.761,0.762,0.762,0.763,0.764,0.765,0.767,0.768,0.769,0.77,0.771,0.772,0.773,0.773,0.773,0.774,0.774,0.774,0.774,0.774,0.775,0.775,0.776,0.777,0.777,0.778,0.779,0.779,0.78,0.781,0.782,0.783,0.784,0.785,0.787,0.789,0.791,0.793,0.796,0.8,0.803,0.806,0.809,0.811,0.814,0.816,0.818,0.82,0.82,0.821,0.822,0.823,0.823,0.824,0.824,0.825,0.825,0.825,0.824,0.824,0.824,0.823,0.825,0.825,0.825,0.826,0.827,0.828,0,0,3.212,3.203,3.185,3.175,3.157,3.148,3.139,3.131,3.122,3.113,3.104,3.096,3.087,3.078,3.07,3.061,3.053,3.053,3.045,3.036,3.028,3.028,3.02,3.011,3.003,2.995,2.995,2.987,2.971,2.963,2.963,2.955,2.94,2.932,2.924,2.909,2.901,2.886,2.871,2.864,2.849,2.842,2.834,2.82,2.813,2.806,2.791,2.784,2.777,2.764,2.757,2.75,2.736,2.73,2.723,2.71,2.703,2.696,2.683,2.677,2.67,2.664,2.658,2.651,2.645,2.639,2.632,2.626,2.62,2.614,2.601,2.595,2.589,2.577,2.571,2.565,2.559,2.553,2.548,2.542,2.536,2.53,2.519,2.513,2.507,2.502,2.49,2.485,2.474,2.468,2.463,2.457,2.452,2.441,2.436,2.43,2.425,2.414,2.409,2.404,2.399,2.394,2.388,2.383,2.378,2.368,2.363,2.358,2.348,2.343,2.338
0,0,0,0,0,0,0,0,0,0,0,0,0,0,0,0,0,0,0,0,0,0,0,0,0,0,0,0,0,0,0,0,0,0,0,0,0,0,0,0,0,0,0,0.524,0.524,0.525,0.525,0.526,0.527,0.527,0.528,0.528,0.529,0.53,0.53,0.531,0.53,0.531,0.531,0.53,0.53,0.529,0.528,0.527,0.525,0.524,0.522,0.521,0.519,0.518,0.516,0.514,0.513,0.512,0.511,0.51,0.509,0.507,0.506,0.505,0.503,0.502,0,0.499,0.497,0.496,0.495,0.494,0.493,0.493,0.492,0.491,0.491,0.49,0.49,0.49,0.49,0.49,0.491,0.491,0.492,0.493,0.493,0.494,0.495,0.496,0.497,0.497,0.498,0.499,0.5,0.501,0.502,0.503,0.504,0.504,0.504,0.505,0.505,0.506,0.506,0.506,0.507,0.507,0.507,0.508,0.509,0.509,0.51,0.511,0.511,0.512,0.513,0.513,0.514,0.514,0.514,0.514,0.515,0.515,0.515,0.516,0.517,0,0,0,0,0,0,0,5.926,5.926,5.958,5.958,5.926,5.958,5.958,5.958,5.958,5.958,5.958,5.958,5.958,5.958,5.958,5.958,5.926,5.895,5.895,5.864,5.833,5.833,5.802,5.772,5.772,5.742,5.742,5.742,0,0,0,0,0,0,0,0,0,0,0,0,0,0,0,0,0,0,0,0,0,0,0,0,0,0,0,0,0,0,0,0,0,0,0,0,0,0,0,0,0,0,0,0,0,0,0.716,0.716,0.716,0.715,0.714,0.714,0.714,0.714,0.714,0.715,0.715,0.715,0.716,0.716,0.718,0.719,0.721,0.722,0.723,0.724,0.725,0.725,0.726,0.726,0.726,0.726,0.726,0.726,0.726,0.726,0.726,0.728,0.73,0.731,0.732,0.733,0.734,0.736,0.738,0.739,0.739,0.739,0.739,0.739,0.74,0.74,0.74,0.739,0.739,0.738,0.738,0.738,0.738,0.738,0.737,0.738,0.738,0.738,0.738,0.738,0.738,0.738,0.738,0.738,0.738,0.738,0.738,0.738,0.737,0.738,0.738,0.738,0.738,0.738,0.738,0.738,0.739,0.739,0.739,0.739,0.739,0.739,0.739,0.739,0.739,0.739,0.739,0.739,0.738,0.738,0.738,0.738,0.738,0.738,0.738,0.739,0.739,0.739,0.739,0.739,0.74,0.74,0.74,0.741,0.741,0.742,0.742,0.743,0.743,0.744,0.744,0.745,0.745,0.746,0.746,0.747,0.747,0.747,0.748,0.748,0.749,0.75,0.75,0.751,0.751,0.752,0.753,0.753,0.753,0.754,0.755,0.755,0.756,0.757,0.758,0.759,0.76,0.761,0.762,0.762,0.763,0.764,0.765,0.766,0.767,0.769,0.77,0.77,0.771,0.772,0.772,0.773,0.773,0.773,0.773,0.773,0.773,0.773,0.774,0.774,0.776,0.776,0.777,0.778,0.778,0.779,0.78,0.781,0.782,0.783,0.784,0.785,0.787,0.789,0.79,0.793,0.796,0.799,0.802,0.805,0.807,0.81,0.812,0.815,0.816,0.817,0.817,0.819,0.82,0.821,0.821,0.821,0.822,0.822,0.822,0.822,0.822,0.822,0.822,0.823,0.824,0.825,0.825,0.826,0.827,0.828,0,0,3.194,3.175,3.166,3.157,3.148,3.131,3.122,3.113,3.104,3.096,3.096,3.087,3.078,3.07,3.061,3.053,3.053,3.045,3.036,3.028,3.028,3.02,3.011,3.003,3.003,2.995,2.987,2.979,2.971,2.963,2.955,2.947,2.94,2.924,2.916,2.901,2.894,2.878,2.864,2.849,2.842,2.834,2.82,2.813,2.799,2.791,2.784,2.771,2.764,2.757,2.743,2.736,2.73,2.716,2.71,2.703,2.69,2.683,2.677,2.67,2.658,2.651,2.645,2.639,2.632,2.632,2.626,2.62,2.608,2.601,2.595,2.583,2.577,2.571,2.565,2.553,2.548,2.542,2.542,2.53,2.524,2.519,2.513,2.507,2.502,2.49,2.485,2.474,2.468,2.463,2.457,2.446,2.441,2.436,2.43,2.42,2.414,2.409,2.404,2.399,2.394,2.383,2.378,2.373,2.368,2.363,2.353,2.348,2.343,2.338
0,0,0,0,0,0,0,0,0,0,0,0,0,0,0,0,0,0,0,0,0,0,0,0,0,0,0,0,0,0,0,0,0,0,0,0,0,0,0,0,0,0,0,0,0.524,0.524,0.525,0.525,0.526,0.527,0.528,0.529,0.53,0.531,0.531,0.531,0.532,0.531,0.531,0.531,0.53,0.529,0.528,0.527,0.526,0.524,0.523,0.521,0.519,0.518,0.516,0.515,0.514,0.513,0.512,0.511,0.51,0.509,0.508,0.507,0.505,0.504,0.503,0.501,0.5,0.499,0.498,0.497,0.496,0.496,0.495,0.494,0.494,0.493,0.493,0.493,0.493,0.493,0.493,0.494,0.495,0.495,0.496,0.496,0.497,0.498,0.498,0.499,0.5,0.501,0.501,0.502,0.503,0.504,0.505,0.505,0.506,0.506,0.506,0.507,0.507,0.507,0.508,0.508,0.508,0.509,0.509,0.51,0.51,0.511,0.512,0.512,0.513,0.513,0.513,0.513,0.514,0.513,0.514,0.514,0.514,0.515,0,0,0,0,0,0,0,0,5.99,5.99,5.99,5.99,5.99,5.99,5.99,5.99,5.99,5.99,5.99,5.99,5.99,5.99,5.99,5.958,5.958,5.926,5.895,5.864,5.864,5.833,5.802,5.772,5.772,5.742,5.712,5.712,5.683,0,0,0,0,0,0,0,0,0,0,0,0,0,0,0,0,0,0,0,0,0,0,0,0,0,0,0,0,0,0,0,0,0,0,0,0,0,0,0,0,0,0,0,0,0,0,0,0.716,0.715,0.714,0.713,0.713,0.713,0.714,0.714,0.714,0.715,0.715,0.716,0.718,0.719,0.721,0.722,0.724,0.725,0.727,0.728,0.729,0.73,0.73,0.73,0.73,0.73,0.73,0.731,0.731,0.732,0.733,0.735,0.736,0.737,0.738,0.739,0.74,0.741,0.742,0.742,0.741,0.741,0.741,0.741,0.741,0.74,0.74,0.739,0.739,0.739,0.739,0.738,0.738,0.738,0.738,0.738,0.738,0.738,0.738,0.738,0.738,0.738,0.738,0.738,0.738,0.738,0.738,0.738,0.738,0.738,0.738,0.738,0.738,0.738,0.739,0.739,0.739,0.739,0.739,0.739,0.739,0.739,0.739,0.739,0.739,0.738,0.738,0.738,0.738,0.738,0.739,0.739,0.739,0.739,0.739,0.739,0.74,0.74,0.74,0.741,0.741,0.741,0.742,0.742,0.743,0.743,0.744,0.744,0.745,0.745,0.745,0.745,0.746,0.746,0.747,0.747,0.748,0.748,0.749,0.75,0.75,0.751,0.751,0.752,0.752,0.753,0.753,0.754,0.754,0.755,0.756,0.757,0.758,0.759,0.76,0.761,0.762,0.763,0.763,0.764,0.765,0.766,0.767,0.769,0.77,0.77,0.771,0.771,0.772,0.772,0.772,0.772,0.772,0.772,0.772,0.772,0.773,0.773,0.774,0.775,0.776,0.777,0.778,0.779,0.779,0.78,0.78,0.782,0.782,0.784,0.785,0.787,0.788,0.79,0.793,0.796,0.798,0.801,0.804,0.807,0.81,0.812,0.813,0.814,0.814,0.816,0.817,0.818,0.818,0.818,0.819,0.82,0.82,0.82,0.82,0.82,0.821,0.821,0.823,0.822,0.824,0.825,0.826,0.826,0.828,0,0,3.166,3.157,3.139,3.139,3.131,3.122,3.113,3.104,3.096,3.096,3.087,3.078,3.07,3.061,3.061,3.053,3.045,3.036,3.028,3.028,3.02,3.02,3.011,3.003,2.995,2.987,2.979,2.971,2.963,2.955,2.947,2.94,2.932,2.916,2.909,2.894,2.886,2.871,2.856,2.842,2.834,2.82,2.813,2.799,2.791,2.777,2.771,2.764,2.75,2.743,2.736,2.723,2.716,2.71,2.696,2.69,2.683,2.677,2.664,2.658,2.651,2.645,2.639,2.632,2.626,2.62,2.614,2.608,2.601,2.589,2.583,2.577,2.571,2.559,2.553,2.548,2.542,2.536,2.53,2.524,2.519,2.513,2.507,2.502,2.49,2.485,2.474,2.468,2.463,2.452,2.446,2.441,2.436,2.425,2.42,2.414,2.409,2.404,2.399,2.394,2.383,2.378,2.373,2.368,2.363,2.358,2.348,2.343,2.338
0,0,0,0,0,0,0,0,0,0,0,0,0,0,0,0,0,0,0,0,0,0,0,0,0,0,0,0,0,0,0,0,0,0,0,0,0,0,0,0,0,0,0,0,0,0,0,0.525,0.526,0.527,0.528,0.529,0.53,0.531,0.532,0.532,0.532,0.532,0.532,0.532,0.531,0.53,0.529,0.527,0.526,0.524,0.523,0.521,0.52,0.518,0.517,0.516,0.515,0.514,0.513,0.512,0.512,0.511,0.51,0.509,0.507,0.506,0.505,0.504,0.503,0.502,0.501,0.5,0.499,0.499,0.498,0.498,0.497,0.497,0.496,0.496,0.495,0.496,0.496,0.496,0.497,0.497,0.498,0.498,0.499,0.499,0.5,0.501,0.501,0.502,0.503,0.504,0.504,0.505,0.506,0.506,0.507,0.507,0.507,0.508,0.508,0.508,0.508,0.509,0.509,0.509,0.51,0.51,0.511,0.511,0.512,0.512,0.512,0.513,0.513,0.513,0.513,0.513,0.513,0.513,0.514,0.514,0,0,0,0,0,0,0,0,6.023,6.023,6.023,5.99,5.99,6.023,5.99,5.99,6.023,5.99,5.99,5.99,5.99,5.99,5.99,5.99,5.958,5.926,5.895,5.895,5.864,5.833,5.802,5.802,5.772,5.742,5.712,5.683,5.683,5.654,0,0,0,0,0,0,0,0,0,0,0,0,0,0,0,0,0,0,0,0,0,0,0,0,0,0,0,0,0,0,0,0,0,0,0,0,0,0,0,0,0,0,0,0,0,0,0,0.715,0.713,0.712,0.712,0.713,0.713,0.714,0.714,0.714,0.715,0.715,0.718,0.719,0.721,0.723,0.725,0.727,0.729,0.731,0.732,0.733,0.734,0.734,0.735,0.735,0.735,0.735,0.735,0.736,0.738,0.739,0.74,0.74,0.742,0.743,0.743,0.744,0.744,0.744,0.743,0.743,0.743,0.742,0.742,0.741,0.741,0.741,0.74,0.74,0.74,0.739,0.738,0.738,0.738,0.738,0.738,0.738,0.738,0.738,0.738,0.738,0.738,0.738,0.738,0.738,0.738,0.738,0.738,0.738,0.738,0.738,0.738,0.738,0.739,0.739,0.739,0.739,0.74,0.739,0.739,0.739,0.739,0.739,0.739,0.739,0.738,0.738,0.739,0.739,0.739,0.74,0.74,0.74,0.74,0.74,0.741,0.741,0.741,0.742,0.742,0.742,0.743,0.743,0.743,0.744,0.744,0.744,0.745,0.745,0.745,0.745,0.746,0.746,0.747,0.747,0.748,0.748,0.749,0.75,0.75,0.751,0.751,0.751,0.752,0.753,0.753,0.754,0.754,0.755,0.756,0.757,0.758,0.759,0.76,0.761,0.762,0.763,0.763,0.764,0.765,0.766,0.767,0.769,0.769,0.77,0.77,0.771,0.771,0.771,0.771,0.771,0.771,0.771,0.771,0.771,0.772,0.773,0.773,0.774,0.775,0.776,0.777,0.778,0.779,0.779,0.779,0.78,0.781,0.782,0.783,0.784,0.785,0.788,0.79,0.793,0.796,0.798,0.801,0.804,0.807,0.809,0.81,0.811,0.812,0.814,0.814,0.815,0.815,0.816,0.817,0.817,0.818,0.818,0.818,0.818,0.819,0.82,0.821,0.822,0.822,0.824,0.825,0.826,0.826,0.828,0,0,3.148,3.131,3.131,3.122,3.113,3.104,3.104,3.096,3.096,3.087,3.078,3.07,3.07,3.061,3.053,3.045,3.036,3.036,3.028,3.028,3.02,3.011,3.011,3.003,2.987,2.979,2.979,2.971,2.963,2.955,2.947,2.932,2.924,2.909,2.901,2.886,2.871,2.856,2.842,2.834,2.82,2.806,2.799,2.784,2.777,2.771,2.757,2.75,2.743,2.73,2.723,2.716,2.703,2.696,2.69,2.677,2.67,2.664,2.658,2.651,2.645,2.639,2.632,2.626,2.62,2.614,2.608,2.595,2.589,2.583,2.571,2.565,2.559,2.553,2.548,2.542,2.536,2.53,2.524,2.519,2.513,2.507,2.502,2.496,2.485,2.474,2.468,2.463,2.452,2.446,2.441,2.436,2.425,2.42,2.414,2.409,2.404,2.399,2.388,2.383,2.378,2.373,2.368,2.363,2.358,2.348,2.343,2.338
0,0,0,0,0,0,0,0,0,0,0,0,0,0,0,0,0,0,0,0,0,0,0,0,0,0,0,0,0,0,0,0,0,0,0,0,0,0,0,0,0,0,0,0,0,0,0,0,0,0,0.528,0.529,0.53,0.531,0.532,0.532,0.532,0.533,0.532,0.532,0.531,0.53,0.529,0.527,0.526,0.524,0.523,0.521,0.519,0.518,0.517,0.516,0.515,0.514,0.514,0.513,0.512,0.512,0.511,0.51,0.51,0.509,0.507,0.506,0.506,0.505,0.504,0.503,0.503,0.502,0.501,0.501,0.5,0.5,0.499,0.499,0.499,0.499,0.499,0.499,0.499,0.499,0.5,0.5,0.501,0.501,0.502,0.502,0.503,0.504,0.504,0.505,0.506,0.506,0.507,0.507,0.508,0.508,0.508,0.509,0.509,0.509,0.509,0.509,0.51,0.51,0.51,0.511,0.511,0.512,0.512,0.512,0.512,0.513,0.513,0.513,0.513,0.513,0.513,0.513,0.513,0.513,0,0,0,0,0,0,0,6.056,6.056,6.056,6.056,6.023,6.023,6.023,6.023,6.023,5.99,5.99,5.99,5.99,5.958,5.958,5.958,5.958,5.926,5.926,5.895,5.895,5.864,5.833,5.802,5.772,5.742,5.742,5.712,5.683,5.654,5.625,0,0,0,0,0,0,0,0,0,0,0,0,0,0,0,0,0,0,0,0,0,0,0,0,0,0,0,0,0,0,0,0,0,0,0,0,0,0,0,0,0,0,0,0,0,0,0,0,0.713,0.712,0.712,0.712,0.713,0.713,0.714,0.714,0.715,0.716,0.718,0.719,0.721,0.723,0.726,0.729,0.731,0.734,0.736,0.737,0.737,0.738,0.739,0.739,0.739,0.74,0.74,0.74,0.741,0.742,0.743,0.744,0.744,0.745,0.745,0.746,0.746,0.745,0.745,0.744,0.744,0.743,0.743,0.742,0.742,0.742,0.741,0.741,0.741,0.74,0.739,0.739,0.739,0.739,0.739,0.739,0.739,0.738,0.738,0.738,0.738,0.738,0.738,0.738,0.738,0.738,0.738,0.738,0.738,0.738,0.738,0.738,0.739,0.739,0.739,0.739,0.74,0.74,0.74,0.739,0.739,0.739,0.739,0.739,0.739,0.739,0.739,0.739,0.74,0.74,0.741,0.741,0.741,0.741,0.742,0.742,0.742,0.743,0.743,0.743,0.743,0.744,0.744,0.744,0.744,0.745,0.745,0.745,0.745,0.745,0.746,0.746,0.747,0.747,0.748,0.748,0.749,0.75,0.75,0.751,0.751,0.751,0.752,0.752,0.753,0.754,0.754,0.755,0.756,0.757,0.758,0.759,0.76,0.761,0.762,0.762,0.763,0.764,0.765,0.766,0.767,0.769,0.769,0.77,0.77,0.77,0.771,0.771,0.77,0.77,0.77,0.77,0.77,0.771,0.771,0.772,0.773,0.773,0.774,0.775,0.776,0.777,0.778,0.778,0.778,0.779,0.78,0.78,0.782,0.782,0.783,0.785,0.787,0.79,0.792,0.795,0.797,0.801,0.804,0.806,0.808,0.809,0.81,0.811,0.812,0.813,0.814,0.814,0.815,0.815,0.816,0.816,0.816,0.816,0.817,0.818,0.82,0.821,0.822,0.822,0.824,0.825,0.826,0.826,0.826,0,0,0,3.122,3.113,3.113,3.104,3.096,3.096,3.087,3.096,3.078,3.078,3.07,3.061,3.053,3.053,3.045,3.036,3.036,3.028,3.028,3.02,3.011,3.003,2.995,2.987,2.979,2.971,2.971,2.963,2.947,2.94,2.924,2.916,2.901,2.886,2.871,2.856,2.842,2.827,2.82,2.806,2.791,2.784,2.777,2.764,2.757,2.75,2.736,2.73,2.716,2.71,2.703,2.69,2.683,2.677,2.67,2.664,2.658,2.645,2.639,2.632,2.626,2.62,2.614,2.608,2.601,2.595,2.583,2.577,2.571,2.565,2.553,2.548,2.542,2.542,2.536,2.53,2.524,2.519,2.513,2.507,2.502,2.496,2.485,2.479,2.468,2.457,2.452,2.446,2.441,2.43,2.425,2.42,2.414,2.409,2.404,2.394,2.388,2.383,2.378,2.373,2.368,2.363,2.358,2.348,2.343,2.338
0,0,0,0,0,0,0,0,0,0,0,0,0,0,0,0,0,0,0,0,0,0,0,0,0,0,0,0,0,0,0,0,0,0,0,0,0,0,0,0,0,0,0,0,0,0,0,0,0,0,0,0,0,0,0.532,0.533,0.533,0.533,0.533,0.532,0.531,0.53,0.529,0.527,0.525,0.524,0.522,0.521,0.519,0.518,0.517,0.516,0.516,0.515,0.514,0.514,0.513,0.512,0.512,0.512,0.511,0.51,0.51,0.509,0.508,0.507,0.507,0.506,0.506,0.505,0.505,0.504,0.504,0.504,0.503,0.502,0.502,0.501,0.501,0.501,0.501,0.501,0.502,0.502,0.502,0.503,0.503,0.504,0.504,0.505,0.506,0.506,0.507,0.507,0.508,0.508,0.508,0.509,0.509,0.509,0.509,0.51,0.51,0.51,0.51,0.511,0.511,0.511,0.512,0.512,0.512,0.512,0.512,0.513,0.513,0.513,0.513,0.513,0.513,0.513,0.513,0.513,0,0,0,0,0,0,6.089,6.089,6.089,6.056,6.056,6.056,6.023,6.023,6.023,5.99,5.99,5.99,5.99,5.958,5.958,5.958,5.958,5.958,5.926,5.926,5.895,5.864,5.833,5.802,5.802,5.772,5.742,5.712,5.683,5.683,5.654,5.625,5.625,5.597,5.597,0,0,0,0,0,0,0,0,0,0,0,0,0,0,0,0,0,0,0,0,0,0,0,0,0,0,0,0,0,0,0,0,0,0,0,0,0,0,0,0,0,0,0,0,0,0,0.711,0.711,0.712,0.713,0.713,0.714,0.714,0.715,0.716,0,0.72,0.722,0.724,0.727,0.73,0.733,0.736,0.739,0.74,0.742,0.742,0.743,0.744,0.744,0.744,0.744,0.744,0.745,0.746,0.746,0.747,0.747,0.747,0.747,0.748,0.747,0.746,0.746,0.745,0.744,0.744,0.744,0.743,0.743,0.742,0.742,0.742,0.741,0.741,0.74,0.74,0.74,0.74,0.739,0.739,0.739,0.739,0.739,0.739,0.739,0.739,0.738,0.738,0.738,0.738,0.738,0.738,0.738,0.738,0.738,0.738,0.739,0.739,0.739,0.74,0.74,0.74,0.74,0.74,0.74,0.739,0.739,0.739,0.739,0.74,0.74,0.74,0.74,0.741,0.741,0.742,0.741,0.742,0.742,0.742,0.743,0.743,0.743,0.744,0.744,0.744,0.745,0.745,0.745,0.745,0.745,0.745,0.745,0.745,0.746,0.746,0.747,0.747,0.748,0.749,0.749,0.75,0.75,0.75,0.751,0.751,0.752,0.752,0.753,0.754,0.754,0.755,0.756,0.757,0.758,0.759,0.76,0.761,0.762,0.763,0.764,0.765,0.766,0.767,0.767,0.769,0.769,0.77,0.77,0.77,0.77,0.77,0.77,0.77,0.769,0.769,0.769,0.77,0.77,0.771,0.772,0.772,0.773,0.774,0.776,0.776,0.777,0.778,0.778,0.778,0.779,0.779,0.779,0.78,0.781,0.783,0.784,0.787,0.789,0.792,0.794,0.797,0.8,0.803,0.805,0.806,0.808,0.809,0.81,0.811,0.812,0.812,0.813,0.814,0.814,0.814,0.814,0.815,0.816,0.817,0.818,0.819,0.82,0.822,0.823,0.824,0.825,0.825,0.826,0.826,0.828,0.828,0,0,3.113,3.113,3.104,3.104,3.096,3.096,3.087,3.078,3.07,3.07,3.061,3.053,3.045,3.045,3.045,3.036,3.028,3.02,3.011,3.011,3.003,2.995,2.987,2.979,2.971,2.963,2.955,2.947,2.932,2.916,2.901,2.886,2.871,2.856,2.842,2.827,2.813,2.799,2.791,2.777,2.771,2.764,2.757,2.743,2.736,2.723,2.716,2.71,2.696,2.69,2.683,2.67,2.664,2.658,2.651,2.645,2.639,2.632,2.62,2.62,2.614,2.601,2.595,2.589,2.583,2.577,2.565,2.559,2.553,2.548,2.542,2.536,2.536,2.53,2.524,2.524,2.519,2.513,2.507,2.496,2.49,2.479,2.474,2.463,2.452,2.446,2.436,2.43,2.425,2.42,2.414,2.409,2.399,2.394,2.388,2.383,2.378,2.373,2.368,2.363,2.358,2.348,2.343,2.338
0,0,0,0,0,0,0,0,0,0,0,0,0,0,0,0,0,0,0,0,0,0,0,0,0,0,0,0,0,0,0,0,0,0,0,0,0,0,0,0,0,0,0,0,0,0,0,0,0,0,0,0,0,0,0.533,0.533,0.533,0.533,0.533,0.532,0.531,0.53,0.528,0.526,0.525,0.524,0.522,0.521,0.519,0.518,0.517,0.517,0.516,0.515,0.515,0.515,0.514,0.514,0.513,0.512,0.512,0.511,0.511,0.511,0.51,0.51,0.51,0.509,0.509,0.509,0.508,0.508,0.507,0.507,0.506,0.506,0.505,0.505,0.504,0.504,0.504,0.504,0.504,0.504,0.504,0.505,0.505,0.505,0.506,0.506,0.507,0.507,0.508,0.508,0.509,0.509,0.509,0.51,0.51,0.51,0.51,0.51,0.51,0.511,0.511,0.511,0.511,0.512,0.512,0.512,0.512,0.512,0.513,0.513,0.513,0.513,0.513,0.513,0.513,0.513,0,0,0,0,0,0,6.056,6.056,6.056,6.056,6.056,6.056,6.023,6.023,6.023,5.99,5.99,5.99,5.958,5.958,5.958,5.958,5.958,5.958,5.926,5.926,5.926,5.895,5.864,5.864,5.833,5.802,5.772,5.772,5.742,5.712,5.683,5.654,5.654,5.625,5.625,5.625,5.625,5.625,5.625,0,0,0,0,0,0,0,0,0,0,0,0,0,0,0,0,0,0,0,0,0,0,0,0,0,0,0,0,0,0,0,0,0,0,0,0,0,0,0,0,0,0,0,0,0,0.711,0.712,0.713,0.714,0.714,0.714,0.715,0.716,0.719,0.721,0.723,0.725,0.728,0.731,0.735,0.739,0.742,0.745,0.746,0.747,0.747,0.748,0.749,0.749,0.749,0.749,0.749,0.75,0.75,0.75,0.75,0.749,0.749,0.749,0.748,0.748,0.747,0.746,0.745,0.745,0.745,0.744,0.743,0.743,0.743,0.742,0.742,0.742,0.741,0.741,0.741,0.74,0.74,0.74,0.74,0.739,0.74,0.74,0.739,0.739,0.739,0.739,0.738,0.738,0.738,0.738,0.738,0.738,0.738,0.738,0.739,0.739,0.74,0.74,0.74,0.74,0.74,0.74,0.74,0.74,0.74,0.74,0.74,0.74,0.74,0.74,0.741,0.741,0.742,0.742,0.742,0.742,0.742,0.743,0.743,0.743,0.744,0.744,0.744,0.745,0.745,0.745,0.745,0.745,0.745,0.745,0.745,0.746,0.746,0.746,0.747,0.747,0.748,0.749,0.749,0.75,0.75,0.751,0.751,0.751,0.752,0.752,0.753,0.754,0.754,0.755,0.757,0.757,0.759,0.759,0.76,0.761,0.762,0.763,0.764,0.765,0.766,0.767,0.767,0.769,0.769,0.769,0.769,0.77,0.77,0.769,0.769,0.769,0.769,0.769,0.769,0.769,0.77,0.77,0.771,0.772,0.773,0.774,0.775,0.776,0.776,0.777,0.777,0.778,0.778,0.778,0.778,0.779,0.779,0.781,0.783,0.785,0.787,0.789,0.792,0.794,0.797,0.8,0.801,0.803,0.805,0.807,0.808,0.809,0.81,0.81,0.811,0.812,0.812,0.812,0.812,0.814,0.814,0.815,0.817,0.818,0.819,0.82,0.822,0.822,0.823,0.824,0.825,0.826,0.826,0.828,0.828,0.828,0,0,3.113,3.104,3.096,3.096,3.087,3.087,3.078,3.07,3.061,3.061,3.053,3.045,3.045,3.045,3.036,3.028,3.02,3.011,3.003,3.003,2.995,2.987,2.979,2.971,2.963,2.947,2.932,2.924,2.909,2.894,2.871,2.856,2.842,2.827,2.813,2.799,2.784,2.777,2.771,2.757,2.75,2.743,2.73,2.723,2.71,2.703,2.696,2.69,2.677,2.67,2.664,2.658,2.645,2.639,2.632,2.626,2.62,2.614,2.608,2.601,2.589,2.583,2.577,2.571,2.565,2.559,2.548,2.542,2.536,2.536,2.53,2.524,2.524,2.519,2.519,2.513,2.507,2.502,2.49,2.479,2.474,2.463,2.452,2.446,2.436,2.43,2.425,2.42,2.409,2.404,2.399,2.394,2.388,2.383,2.378,2.373,2.368,2.363,2.358,2.348,2.343,2.338
0,0,0,0,0,0,0,0,0,0,0,0,0,0,0,0,0,0,0,0,0,0,0,0,0,0,0,0,0,0,0,0,0,0,0,0,0,0,0,0,0,0,0,0,0,0,0,0,0,0,0,0,0,0,0,0.534,0.534,0.533,0.533,0.533,0.531,0.529,0.528,0.526,0.524,0.523,0.521,0.52,0.519,0.518,0.518,0.517,0.517,0.516,0.516,0.515,0.515,0.514,0.514,0.514,0.513,0.513,0.512,0.512,0.512,0.511,0.511,0.511,0.511,0.51,0.51,0.51,0.51,0.51,0.509,0.508,0.508,0.507,0.507,0.507,0.506,0.506,0.506,0.506,0.506,0.506,0.507,0.507,0.507,0.508,0.508,0.508,0.509,0.509,0.51,0.51,0.51,0.51,0.51,0.51,0.51,0.511,0.511,0.511,0.511,0.512,0.512,0.512,0.512,0.512,0.512,0.512,0.513,0.512,0.513,0.513,0.512,0.512,0.513,0,0,0,0,0,0,0,6.023,6.056,6.056,6.056,6.023,6.023,6.023,6.023,6.023,5.99,5.99,5.958,5.958,5.958,5.958,5.926,5.926,5.895,5.895,5.895,5.895,5.895,5.864,5.833,5.833,5.802,5.772,5.742,5.742,5.712,5.683,5.683,5.654,5.654,5.625,5.625,5.625,5.625,5.654,5.654,0,0,0,0,0,0,0,0,0,0,0,0,0,0,0,0,0,0,0,0,0,0,0,0,0,0,0,0,0,0,0,0,0,0,0,0,0,0,0,0,0,0,0,0,0,0.712,0.713,0.714,0.714,0.715,0.716,0.717,0.719,0.721,0.724,0.727,0.729,0,0,0.742,0.746,0.749,0.75,0.751,0.751,0.753,0.753,0.753,0.753,0.753,0.753,0.753,0.753,0.753,0.752,0.752,0.751,0.751,0.75,0.749,0.748,0.747,0.746,0.746,0.745,0.744,0.744,0.744,0.744,0.743,0.743,0.742,0.742,0.741,0.741,0.741,0.741,0.74,0.74,0.74,0.74,0.74,0.74,0.74,0.739,0.739,0.739,0.739,0.738,0.738,0.738,0.738,0.738,0.738,0.739,0.739,0.74,0.74,0.74,0.74,0.74,0.74,0.74,0.74,0.74,0.74,0.74,0.74,0.741,0.741,0.741,0.742,0.742,0.742,0.742,0.742,0.743,0.743,0.743,0.744,0.744,0.744,0.744,0.744,0.745,0.745,0.744,0.744,0.745,0.745,0.745,0.746,0.746,0.746,0.747,0.748,0.748,0.749,0.749,0.75,0.75,0.751,0.751,0.751,0.752,0.752,0.753,0.754,0.755,0.756,0.757,0.757,0.759,0.76,0.761,0.762,0.763,0.763,0.764,0.765,0.766,0.767,0.767,0.769,0.769,0.769,0.769,0.769,0.769,0.769,0.769,0.769,0.769,0.768,0.769,0.769,0.769,0.77,0.771,0.771,0.772,0.773,0.774,0.775,0.776,0.776,0.777,0.777,0.777,0.778,0.778,0.778,0.779,0.78,0.782,0.783,0.784,0.787,0.789,0.792,0.794,0.796,0.798,0.8,0.802,0.804,0.805,0.807,0.808,0.808,0.809,0.81,0.81,0.811,0.811,0.812,0.812,0.813,0.815,0.816,0.817,0.818,0.82,0.822,0.822,0.823,0.823,0.825,0.826,0.827,0.827,0.828,0.829,0.83,0,3.113,3.104,3.104,3.096,3.087,3.078,3.078,3.07,3.061,3.053,3.053,3.045,3.045,3.036,3.036,3.028,3.02,3.011,3.011,3.003,2.995,2.987,2.979,2.971,2.955,2.94,2.924,2.909,2.894,2.871,2.856,2.834,2.82,2.806,2.791,2.784,2.771,2.764,2.757,2.743,2.736,2.73,2.716,2.71,2.703,2.69,2.683,2.677,2.664,2.658,2.651,2.645,2.639,2.626,2.62,2.614,2.608,2.601,2.595,2.589,2.577,2.571,2.565,2.559,2.553,2.548,2.542,2.536,2.536,2.53,2.524,2.524,2.519,2.519,2.513,2.507,2.502,2.496,2.485,2.474,2.463,2.457,2.446,2.436,2.43,2.425,2.414,2.409,2.404,2.399,2.394,2.388,2.383,2.378,2.373,2.368,2.363,2.358,2.348,2.343,2.338
0,0,0,0,0,0,0,0,0,0,0,0,0,0,0,0,0,0,0,0,0,0,0,0,0,0,0,0,0,0,0,0,0,0,0,0,0,0,0,0,0,0,0,0,0,0,0,0,0,0,0,0,0,0,0,0,0,0,0.533,0.532,0.53,0.528,0.527,0.525,0.524,0.522,0.521,0.52,0.519,0.518,0.518,0.517,0.517,0.517,0.516,0.516,0.516,0.515,0.515,0.515,0.514,0.514,0.514,0.513,0.513,0.513,0.513,0.513,0.513,0.513,0.513,0.512,0.512,0.512,0.512,0.511,0.511,0.51,0.51,0.51,0.509,0.509,0.508,0.508,0.508,0.508,0.509,0.509,0.509,0.509,0.509,0.51,0.51,0.51,0.51,0.51,0.51,0.511,0.511,0.511,0.511,0.511,0.512,0.512,0.512,0.512,0.512,0.512,0.512,0.513,0.513,0.513,0.513,0.513,0.513,0.513,0.513,0.513,0,0,0,0,0,0,0,5.99,5.99,6.023,6.023,6.023,6.023,6.023,6.023,5.99,5.99,5.99,5.958,5.958,5.926,5.926,5.926,5.895,5.895,5.895,5.895,5.895,5.864,5.864,5.833,5.833,5.802,5.772,5.772,5.742,5.742,5.712,5.712,5.683,5.683,5.654,5.654,5.654,5.654,5.654,5.654,5.683,5.712,5.742,0,0,0,0,0,0,0,0,0,0,0,0,0,0,0,0,0,0,0,0,0,0,0,0,0,0,0,0,0,0,0,0,0,0,0,0,0,0,0,0,0,0,0,0,0,0.713,0.714,0.714,0.715,0.717,0.72,0.721,0.724,0.727,0.73,0.734,0,0.745,0.749,0.753,0.754,0.755,0.756,0.757,0.757,0.758,0.757,0.757,0.756,0.756,0.756,0.755,0.754,0.753,0.753,0.752,0.751,0.75,0.749,0.748,0.747,0.747,0.746,0.746,0.745,0.745,0.744,0.744,0.744,0.743,0.742,0.742,0.742,0.741,0.741,0.741,0.74,0.74,0.74,0.74,0.74,0.74,0.74,0.739,0.739,0.739,0.739,0.738,0.738,0.738,0.738,0.739,0.739,0.739,0.74,0.74,0.74,0.741,0.741,0.741,0.74,0.741,0.74,0.74,0.741,0.741,0.741,0.742,0.742,0.742,0.743,0.743,0.743,0.743,0.743,0.743,0.744,0.744,0.744,0.744,0.744,0.745,0.745,0.745,0.744,0.745,0.745,0.745,0.746,0.746,0.746,0.747,0.747,0.748,0.748,0.749,0.749,0.75,0.75,0.751,0.751,0.751,0.752,0.752,0.753,0.754,0.755,0.756,0.757,0.758,0.759,0.76,0.761,0.762,0.763,0.763,0.764,0.765,0.766,0.767,0.768,0.769,0.769,0.769,0.769,0.769,0.769,0.769,0.768,0.768,0.768,0.768,0.768,0.768,0.769,0.769,0.77,0.771,0.772,0.773,0.773,0.774,0.775,0.776,0.776,0.776,0.777,0.777,0.777,0.778,0.778,0.779,0.78,0.782,0.783,0.785,0.787,0.789,0.791,0.793,0.795,0.797,0.799,0.801,0.802,0.804,0.805,0.806,0.807,0.808,0.808,0.808,0.808,0.81,0.811,0.811,0.812,0.814,0.815,0.817,0.818,0.819,0.82,0.822,0.823,0.823,0.825,0.826,0.827,0.828,0.828,0.83,0,3.122,3.122,3.104,3.096,3.096,3.087,3.078,3.07,3.07,3.061,3.053,3.053,3.053,3.045,3.036,3.028,3.028,3.02,3.011,3.003,3.003,2.995,2.979,2.971,2.963,2.947,2.924,2.909,2.894,2.871,2.856,2.834,2.82,2.806,2.791,2.784,2.771,2.764,2.75,2.743,2.736,2.73,2.716,2.71,2.696,2.69,2.683,2.67,2.664,2.651,2.645,2.639,2.632,2.626,2.62,2.608,2.601,2.595,2.589,2.583,2.577,2.565,2.559,2.559,2.553,2.542,2.536,2.536,2.53,2.53,2.53,2.524,2.519,2.519,2.519,2.513,2.507,2.496,2.485,2.479,2.463,2.457,2.446,2.436,2.43,2.42,2.414,2.409,2.404,2.399,2.394,2.388,2.383,2.378,2.373,2.368,2.363,2.358,2.348,2.348,2.343
0,0,0,0,0,0,0,0,0,0,0,0,0,0,0,0,0,0,0,0,0,0,0,0,0,0,0,0,0,0,0,0,0,0,0,0,0,0,0,0,0,0,0,0,0,0,0,0,0,0,0,0,0,0,0,0,0,0,0,0,0,0,0,0.524,0.522,0.522,0.52,0.52,0.519,0.519,0.518,0.518,0.518,0.518,0.517,0.517,0.517,0.516,0.516,0.516,0.515,0.515,0.515,0.515,0.515,0.515,0.515,0.515,0.515,0.515,0.515,0.515,0.514,0.514,0.514,0.514,0.513,0.513,0.512,0.512,0.511,0.511,0.51,0.51,0.51,0.51,0.51,0.51,0.51,0.51,0.51,0.511,0.511,0.511,0.511,0.511,0.511,0.511,0.511,0.512,0.512,0.512,0.512,0.512,0.512,0.512,0.512,0.513,0.512,0.513,0.512,0.513,0.513,0.513,0.513,0.513,0.513,0,0,0,0,0,0,0,0,5.958,5.958,5.958,5.99,5.99,5.99,5.99,5.958,5.958,5.958,5.958,5.926,5.926,5.895,5.895,5.895,5.895,5.895,5.864,5.864,5.833,5.833,5.833,5.833,5.802,5.772,5.772,5.772,5.742,5.742,5.712,5.712,5.683,5.683,5.683,5.654,5.654,5.654,5.683,5.683,5.712,5.712,5.772,5.802,0,0,0,0,0,0,0,0,0,0,0,0,0,0,0,0,0,0,0,0,0,0,0,0,0,0,0,0,0,0,0,0,0,0,0,0,0,0,0,0,0,0,0,0,0,0,0.715,0.716,0.718,0.72,0.721,0.724,0.726,0.73,0.735,0,0,0,0,0.757,0.759,0.759,0.76,0.76,0.76,0.76,0.76,0.759,0.759,0.758,0.757,0.756,0.755,0.754,0.753,0.752,0.751,0.75,0.75,0.749,0.748,0.747,0.746,0.746,0.746,0.745,0.745,0.745,0.744,0.743,0.743,0.743,0.742,0.742,0.742,0.741,0.741,0.741,0.741,0.74,0.74,0.74,0.74,0.739,0.739,0.739,0.739,0.739,0.739,0.739,0.739,0.739,0.74,0.74,0.741,0.741,0.741,0.741,0.741,0.741,0.741,0.741,0.741,0.741,0.741,0.742,0.742,0.742,0.742,0.743,0.743,0.743,0.743,0.743,0.743,0.744,0.744,0.744,0.744,0.744,0.745,0.745,0.745,0.745,0.745,0.745,0.746,0.746,0.746,0.746,0.747,0.748,0.748,0.749,0.749,0.75,0.75,0.751,0.751,0.751,0.752,0.752,0.753,0.753,0.754,0.755,0.756,0.757,0.758,0.759,0.76,0.761,0.762,0.763,0.763,0.764,0.765,0.766,0.767,0.768,0.769,0.769,0.769,0.769,0.769,0.768,0.768,0.767,0.767,0.767,0.767,0.767,0.768,0.769,0.769,0.77,0.77,0.771,0.772,0.773,0.774,0.774,0.775,0.776,0.776,0.776,0.777,0.777,0.777,0.777,0.778,0.779,0.78,0.781,0.783,0.784,0.787,0.788,0.79,0.792,0.794,0.797,0.799,0.801,0.802,0.804,0.804,0.804,0.805,0.805,0.806,0.807,0.807,0.808,0.81,0.81,0.811,0.812,0.814,0.816,0.817,0.818,0.82,0.821,0.822,0.825,0.825,0.826,0.828,0.828,0.83,0.83,0,0,3.113,3.104,3.096,3.087,3.078,3.078,3.07,3.061,3.061,3.061,3.053,3.053,3.045,3.036,3.036,3.028,3.02,3.011,3.003,2.995,2.987,2.971,2.963,2.947,2.932,2.909,2.894,2.871,2.849,2.834,2.82,2.806,2.791,2.777,2.771,2.764,2.75,2.743,2.736,2.723,2.716,2.703,2.696,2.69,2.677,2.67,2.658,2.651,2.645,2.632,2.626,2.62,2.614,2.608,2.601,2.595,2.583,2.577,2.571,2.565,2.559,2.553,2.548,2.542,2.536,2.536,2.53,2.53,2.524,2.524,2.524,2.519,2.519,2.513,2.507,2.496,2.485,2.479,2.468,2.457,2.446,2.436,2.43,2.42,2.414,2.409,2.404,2.399,2.394,2.388,2.383,2.378,2.373,2.368,2.363,2.358,2.353,2.348,2.343
4.246,0,0,0,0,0,0,0,0,0,0,0,0,0,0,0,0,0,0,0,0,0,0,0,0,0,0,0,0,0,0,0,0,0,0,0,0,0,0,0,0,0,0,0,0,0,0,0,0,0,0,0,0,0,0,0,0,0,0,0,0,0,0,0,0.522,0.521,0.52,0.52,0.519,0.519,0.519,0.519,0.518,0.518,0.518,0.518,0.518,0.517,0.517,0.517,0.517,0.517,0.517,0.516,0.517,0.517,0.517,0.517,0.517,0.517,0.517,0.517,0.517,0.516,0.516,0.516,0.515,0.515,0.514,0.514,0.513,0.513,0.513,0.512,0.512,0.512,0.512,0.512,0.511,0.512,0.511,0.511,0.511,0.511,0.511,0.511,0.511,0.511,0.512,0.512,0.512,0.512,0.512,0.513,0.513,0.513,0.513,0.513,0.513,0.513,0.513,0.513,0.513,0.513,0.513,0.513,0,0,0,0,0,0,0,5.926,5.895,5.926,5.926,5.958,5.958,5.958,5.958,5.958,5.926,5.926,5.926,5.926,5.895,5.895,5.895,5.895,5.895,5.864,5.864,5.864,5.833,5.833,5.833,5.833,5.802,5.772,5.772,5.772,5.772,5.742,5.742,5.742,5.712,5.712,5.683,5.683,5.683,5.683,5.683,5.712,5.712,5.712,5.742,5.772,5.833,5.864,5.895,0,0,0,0,0,0,0,0,0,0,0,0,0,0,0,0,0,0,0,0,0,0,0,0,0,0,0,0,0,0,0,0,0,0,0,0,0,0,0,0,0,0,0,0,0,0.717,0.718,0,0.721,0.722,0.725,0,0,0,0,0,0,0.76,0.76,0.761,0.762,0.762,0.762,0.761,0.761,0.761,0.761,0.76,0.759,0.757,0.756,0.756,0.755,0.754,0.753,0.752,0.751,0.75,0.749,0.749,0.747,0.747,0.747,0.746,0.746,0.746,0.745,0.745,0.744,0.743,0.743,0.743,0.742,0.742,0.741,0.741,0.741,0.741,0.741,0.74,0.74,0.74,0.74,0.739,0.739,0.739,0.739,0.739,0.739,0.74,0.74,0.74,0.741,0.741,0.741,0.741,0.741,0.742,0.742,0.742,0.742,0.742,0.742,0.742,0.742,0.743,0.743,0.743,0.743,0.743,0.743,0.743,0.744,0.744,0.744,0.744,0.744,0.745,0.745,0.745,0.745,0.745,0.745,0.745,0.746,0.746,0.746,0.747,0.747,0.748,0.749,0.749,0.75,0.75,0.751,0.751,0.752,0.752,0.752,0.753,0.753,0.754,0.755,0.755,0.756,0.757,0.758,0.759,0.76,0.761,0.762,0.763,0.763,0.764,0.765,0.766,0.767,0.768,0.769,0.769,0.769,0.769,0.768,0.768,0.767,0.767,0.767,0.767,0.767,0.767,0.767,0.768,0.769,0.769,0.77,0.771,0.772,0.773,0.773,0.774,0.775,0.776,0.776,0.776,0.776,0.776,0.777,0.777,0.778,0.779,0.779,0.78,0.782,0.783,0.785,0.786,0.788,0.789,0.792,0.794,0.796,0.798,0.8,0.801,0.802,0.802,0.803,0.804,0.804,0.804,0.805,0.807,0.807,0.808,0.809,0.811,0.812,0.814,0.815,0.816,0.818,0.82,0.822,0.823,0.825,0.826,0.828,0.828,0.83,0.83,0.83,0,0,3.104,3.096,3.087,3.087,3.078,3.07,3.07,3.061,3.061,3.061,3.053,3.045,3.045,3.036,3.028,3.02,3.02,3.011,2.995,2.987,2.971,2.963,2.947,2.924,2.909,2.886,2.864,2.849,2.827,2.813,2.799,2.784,2.777,2.771,2.764,2.75,2.743,2.736,2.723,2.716,2.703,2.696,2.683,2.677,2.664,2.651,2.645,2.639,2.632,2.62,2.614,2.608,2.601,2.595,2.589,2.583,2.577,2.565,2.559,2.559,2.553,2.548,2.542,2.536,2.536,2.53,2.53,2.524,2.524,2.524,2.524,2.519,2.513,2.507,2.502,2.49,2.479,2.468,2.457,2.446,2.441,2.43,2.42,2.414,2.409,2.404,2.399,2.394,2.388,2.383,2.378,2.373,2.368,2.363,2.358,2.353,2.348,2.343
4.246,4.246,0,0,0,0,0,0,0,0,0,0,0,0,0,0,0,0,0,0,0,0,0,0,0,0,0,0,0,0,0,0,0,0,0,0,0,0,0,0,0,0,0,0,0,0,0,0,0,0,0,0,0,0,0,0,0,0,0,0,0,0,0,0,0,0.521,0.52,0.52,0.52,0.52,0.519,0.519,0.519,0.519,0.519,0.519,0.519,0.519,0.518,0.518,0.518,0.518,0.518,0.518,0.518,0.518,0.518,0.519,0.519,0.519,0.519,0.519,0.519,0.518,0.518,0.518,0.517,0.517,0.516,0.516,0.515,0.515,0.514,0.514,0.514,0.514,0.514,0.513,0.513,0.513,0.513,0.512,0.512,0.512,0.512,0.512,0.512,0.512,0.512,0.512,0.512,0.513,0.513,0.513,0.513,0.513,0.513,0.513,0.513,0.513,0.513,0.513,0.513,0.513,0,0,0,0,0,0,0,0,5.958,5.926,5.895,5.895,5.895,5.926,5.926,5.926,5.926,5.926,5.926,5.926,5.895,5.895,5.895,5.895,5.864,5.864,5.864,5.864,5.864,5.864,5.833,5.833,5.833,5.833,5.833,5.802,5.802,5.772,5.772,5.772,5.772,5.742,5.742,5.742,5.742,5.712,5.712,5.712,5.712,5.712,5.742,5.742,5.772,5.802,5.833,5.864,5.895,5.926,5.958,0,0,0,0,0,0,0,0,0,0,0,0,0,0,0,0,0,0,0,0,0,0,0,0,0,0,0,0,0,0,0,0,0,0,0,0,0,0,0,0,0,0,0,0,0,0,0,0.722,0.725,0,0,0,0,0,0,0,0.761,0.762,0.763,0.763,0.762,0.762,0.762,0.762,0.761,0.761,0.76,0.759,0.758,0.757,0.756,0.755,0.754,0.753,0.752,0.751,0.751,0.75,0.748,0.748,0.748,0.747,0.747,0.747,0.746,0.746,0.745,0.745,0.744,0.744,0.744,0.743,0.742,0.742,0.742,0.742,0.741,0.741,0.741,0.74,0.74,0.74,0.74,0.739,0.739,0.739,0.739,0.74,0.74,0.741,0.741,0.741,0.741,0.742,0.742,0.742,0.742,0.742,0.742,0.743,0.743,0.743,0.743,0.743,0.743,0.743,0.743,0.743,0.743,0.743,0.744,0.744,0.744,0.744,0.744,0.745,0.745,0.745,0.745,0.745,0.745,0.746,0.746,0.746,0.747,0.747,0.748,0.748,0.749,0.75,0.75,0.751,0.751,0.752,0.752,0.752,0.753,0.753,0.754,0.754,0.755,0.756,0.756,0.758,0.759,0.76,0.76,0.761,0.762,0.763,0.764,0.765,0.765,0.766,0.767,0.768,0.768,0.769,0.769,0.768,0.768,0.768,0.767,0.767,0.767,0.767,0.766,0.766,0.767,0.767,0.768,0.769,0.769,0.77,0.771,0.772,0.773,0.774,0.774,0.775,0.775,0.776,0.776,0.776,0.776,0.776,0.777,0.778,0.778,0.779,0.78,0.781,0.782,0.783,0.785,0.787,0.789,0.791,0.793,0.795,0.797,0.798,0.8,0.8,0.801,0.801,0.802,0.802,0.804,0.804,0.805,0.806,0.807,0.808,0.81,0.811,0.812,0.814,0.816,0.818,0.82,0.822,0.823,0.825,0.826,0.828,0.829,0.829,0.829,0.828,0.828,0.828,0,3.096,3.087,3.078,3.078,3.07,3.061,3.061,3.061,3.053,3.053,3.045,3.036,3.028,3.02,3.011,3.011,2.995,2.987,2.971,2.955,2.94,2.924,2.901,2.878,2.864,2.842,2.827,2.813,2.799,2.784,2.777,2.771,2.757,2.75,2.743,2.73,2.723,2.71,2.703,2.69,2.683,2.67,2.658,2.651,2.645,2.632,2.626,2.62,2.614,2.608,2.601,2.595,2.589,2.583,2.571,2.565,2.559,2.559,2.553,2.548,2.542,2.542,2.536,2.53,2.53,2.53,2.524,2.524,2.524,2.519,2.513,2.507,2.502,2.49,2.479,2.468,2.457,2.446,2.441,2.43,2.42,2.414,2.409,2.404,2.399,2.394,2.388,2.383,2.378,2.373,2.368,2.363,2.358,2.353,2.348,2.343
4.23,4.246,4.246,0,0,0,0,0,0,0,0,0,0,0,0,0,0,0,0,0,0,0,0,0,0,0,0,0,0,0,0,0,0,0,0,0,0,0,0,0,0,0,0,0,0,0,0,0,0,0,0,0,0,0,0,0,0,0,0,0,0,0,0,0,0.521,0.521,0.52,0.52,0.52,0.52,0.52,0.52,0.52,0.52,0.52,0.52,0.52,0.52,0.52,0.52,0.52,0.52,0.52,0.52,0.52,0.52,0.52,0.521,0.521,0.521,0.521,0.521,0.521,0.52,0.52,0.52,0.519,0.519,0.518,0.518,0.517,0.517,0.516,0.516,0.516,0.516,0.515,0.515,0.515,0.514,0.514,0.514,0.513,0.514,0.513,0.512,0.513,0.512,0.512,0.513,0.513,0.513,0.513,0.513,0.513,0.513,0.513,0.513,0.513,0.513,0.513,0.513,0.513,0,0,0,0,0,0,0,0,6.023,5.99,5.958,5.926,5.926,5.926,5.926,5.926,5.926,5.926,5.926,5.895,5.895,5.895,5.895,5.895,5.895,5.864,5.864,5.864,5.864,5.864,5.864,5.864,5.864,5.833,5.833,5.833,5.833,5.833,5.833,5.802,5.802,5.802,5.772,5.772,5.742,5.742,5.742,5.742,5.742,5.742,5.742,5.772,5.802,5.833,5.833,5.864,5.864,5.895,5.926,5.958,5.99,0,0,0,0,0,0,0,0,0,0,0,0,0,0,0,0,0,0,0,0,0,0,0,0,0,0,0,0,0,0,0,0,0,0,0,0,0,0,0,0,0,0,0,0,0,0,0,0,0,0,0,0,0,0,0,0,0.762,0.763,0.763,0.763,0.763,0.763,0.763,0.763,0.762,0.762,0.761,0.76,0.759,0.758,0.757,0.756,0.755,0.754,0.753,0.752,0.751,0.75,0.749,0.749,0.748,0.748,0.747,0.747,0.747,0.746,0.746,0.745,0.745,0.744,0.744,0.743,0.743,0.743,0.742,0.742,0.742,0.742,0.741,0.741,0.74,0.74,0.74,0.74,0.74,0.74,0.74,0.741,0.741,0.742,0.742,0.742,0.742,0.742,0.743,0.743,0.743,0.743,0.743,0.743,0.743,0.743,0.743,0.743,0.743,0.743,0.743,0.743,0.744,0.744,0.744,0.744,0.745,0.745,0.745,0.745,0.745,0.745,0.746,0.746,0.746,0.747,0.747,0.747,0.748,0.748,0.749,0.75,0.75,0.751,0.751,0.751,0.752,0.752,0.753,0.753,0.753,0.754,0.755,0.755,0.756,0.757,0.759,0.759,0.76,0.761,0.762,0.762,0.763,0.764,0.765,0.766,0.766,0.767,0.767,0.767,0.768,0.768,0.768,0.768,0.767,0.767,0.766,0.766,0.767,0.766,0.766,0.766,0.767,0.767,0.769,0.769,0.77,0.771,0.772,0.773,0.773,0.774,0.774,0.775,0.775,0.775,0.776,0.776,0.776,0.776,0.777,0.777,0.778,0.779,0.78,0.78,0.782,0.783,0.784,0.786,0.788,0.79,0.792,0.794,0.796,0.797,0.798,0.798,0.799,0.8,0.8,0.801,0.802,0.803,0.804,0.805,0.806,0.808,0.809,0.81,0.812,0.814,0.815,0.818,0.82,0.822,0.824,0.826,0.826,0.828,0.828,0.828,0.828,0.827,0.827,0.826,0,3.087,3.087,3.078,3.07,3.07,3.061,3.061,3.053,3.053,3.045,3.036,3.028,3.02,3.011,3.003,2.995,2.987,2.971,2.947,2.932,2.916,2.894,2.878,2.856,2.842,2.82,2.806,2.791,2.784,2.777,2.764,2.757,2.75,2.743,2.73,2.723,2.71,2.703,2.69,2.677,2.67,2.658,2.651,2.639,2.632,2.626,2.614,2.608,2.608,2.601,2.595,2.589,2.577,2.571,2.571,2.565,2.559,2.553,2.548,2.542,2.542,2.536,2.536,2.53,2.53,2.53,2.53,2.524,2.519,2.513,2.507,2.502,2.49,2.479,2.468,2.457,2.446,2.436,2.43,2.42,2.414,2.409,2.404,2.399,2.394,2.388,2.383,2.378,2.373,2.368,2.363,2.358,2.353,2.348,2.343
