4.104,4.089,4.089,4.089,4.089,4.074,4.074,4.074,4.074,4.089,4.089,4.074,4.074,4.074,4.074,4.074,4.059,4.059,4.045,4.045,4.045,4.045,4.045,4.045,4.045,4.059,4.074,4.089,4.104,4.104,4.12,4.12,4.135,4.135,4.135,4.12,4.12,4.104,4.104,4.104,4.089,4.089,4.089,4.074,4.074,4.059,4.045,4.03,4.015,4.001,3.986,3.972,3.972,3.958,3.944,3.944,3.944,3.93,3.93,3.93,3.93,3.93,3.93,3.93,3.93,3.93,3.93,3.916,3.916,0,0,0,0,0,0,0,0,0,0,0,0,0,0,0,0,0,0,0,0,0,0,1.123,1.124,1.125,1.126,1.126,1.127,1.127,1.129,1.127,1.13,1.13,1.132,1.132,1.133,1.134,1.137,1.137,1.138,1.139,1.139,1.14,1.141,0,0,0,0,0,0,0,0,0,0,0,0,0,0,0,0,0,0,0,0,0.702,0.702,0.703,0.704,0.704,0.705,0.706,0.707,0.708,0.709,0.71,0.711,0.712,0.713,0.713,0.714,0.714,0.714,0.715,0.715,0.715,0.716,0.716,0.717,0.717,0.718,0.719,0,0,0,0,0,0,0,0,0,0,0,0,0,0,0,0,0,0,0,0,0,0,0,0,0,0.907,0.906,0.906,0.905,0.904,0.904,0.903,0.903,0.902,0.901,0.9,0.9,0.898,0.897,0.895,0.893,0.892,0.89,0.889,0.887,0.885,0.884,0.882,0.882,0.882,0.883,0.883,0.883,0.884,0.884,0.885,0.886,0.887,0.887,0.888,0.889,0.889,0.889,0.89,0.89,0.891,0.891,0.892,0.892,0.894,0.895,0.897,0.898,0.899,0.9,0.9,0.9,0.9,0.899,0.897,0.897,0.895,0.894,0.892,0.892,0.892,0.893,0.892,0.893,0.894,0.894,0.894,0.894,0.893,0.892,0.892,0.892,0.892,0.891,0.892,0.892,0.892,0.893,0.893,0.894,0.894,0.893,0.893,0.892,0.892,0.892,0.891,0.891,0.889,0.889,0.889,0.889,0.887,0.887,0.887,0.887,0.888,0.89,0.892,0.894,0.896,0.897,0.9,0.9,0.902,0.902,0.902,0.902,0.903,0.904,0.905,0.906,0.908,0.909,0.911,0.912,0.913,0.914,0.915,0.917,0.917,0.919,0.92,0.92,0.922,0.923,0.924,0.924,0.925,0.927,0.927,0.927,0.927,0.927,0.927,0.927,0.928,0.928,0.929,0.93,0.93,0.932,0.933,0.934,0.935,0.937,0.938,0.939,0.94,0.941,0.942,0.943,0.944,0.945,0.946,0.946,0.947,0.949,0.95,0.95,0.951,0.952,0.953,0.955,0.955,0.956,0.958,0.959,0.96,0.961,0.963,0.965,0.965,0.968,0.97,0.973,0.975,0.977,0.98,0.982,0.985,0.987,0.989,0.991,0.993,0.994,0.996,0.997,0.997,0.998,0.999,1,1.001,1.002,1.004,1.005,1.007,1.009,1.011,1.014,1.016,1.017,1.018,1.02,1.02,1.021,1.022,1.023,1.025,1.026,1.028,1.03,1.03,1.031,1.032,1.032,1.033,1.033,1.033,1.034,1.036,1.037,1.038,1.039,1.04,1.04,1.041,1.042,1.043,1.044,1.045,1.047,1.049,1.05,1.052,1.054,1.055,1.056,1.058,1.06,1.062,1.064,1.067,1.07,1.072,1.074,1.077,1.078,1.08,1.082,1.086,1.09,1.094,1.097,1.101,1.104,1.106,1.108,1.11,1.113,1.114,1.115,1.117,1.121,1.123,1.125,1.127,1.13,1.132,1.135,1.137,1.138,1.139,1.142,1.145,1.147,1.15,1.154,1.157,1.16,1.168,1.173,1.174,1.176,1.176,1.178,1.18,1.181,1.184,1.184,1.185,1.185,1.185,1.185,1.187,1.185,1.183,1.181,1.181,1.183,1.183,1.184,1.185,1.185,1.185,1.185,1.187,1.185,1.184,1.184,1.184,1.185,1.187,1.189,1.192,1.193,1.195,1.195,1.197,1.197,1.195,1.195,1.195,1.194,1.194,1.194,1.194,1.194,1.194,1.194,1.193,1.193,1.193,1.192,1.192,1.193,1.193,1.194,1.194,1.194,1.194,1.195,1.197,1.197,1.198,1.199,1.199,1.201,1.202,1.205,1.205,1.206,1.207
4.089,4.089,4.089,4.074,4.074,4.074,4.059,4.059,4.059,4.059,4.059,4.059,4.059,4.059,4.059,4.045,4.045,4.045,4.045,4.045,4.03,4.03,4.03,4.03,4.045,4.059,4.059,4.074,4.089,4.089,4.104,4.12,4.12,4.12,4.104,4.104,4.104,4.089,4.089,4.089,4.089,4.074,4.074,4.074,4.059,4.045,4.045,4.03,4.015,4.001,3.986,3.972,3.958,3.944,3.944,3.93,3.93,3.916,3.916,3.916,3.916,3.916,3.916,3.916,3.916,0,0,0,0,0,0,0,0,0,0,0,0,0,0,0,0,0,0,0,0,0,0,0,0,1.121,1.122,1.123,1.124,1.124,1.124,1.125,1.125,1.125,1.126,1.127,1.127,1.129,1.131,1.132,1.132,1.133,1.134,1.134,1.135,1.135,1.137,1.137,0,0,0,0,0,0,0,0,0,0,0,0,0,0,0,0,0,0,0,0,0.703,0.704,0.704,0.705,0.705,0.706,0.706,0.707,0.708,0.709,0.709,0.711,0.712,0.712,0.713,0.713,0.714,0.714,0.714,0.715,0.715,0.715,0.715,0.715,0.716,0.716,0.717,0.718,0,0,0,0,0,0,0,0,0,0,0,0,0,0,0,0,0,0,0,0,0,0,0,0,0.908,0.907,0.905,0.905,0.904,0.903,0.903,0.902,0.902,0.901,0.9,0.9,0.899,0.898,0.897,0.895,0.893,0.892,0.889,0.888,0.887,0.885,0.884,0.883,0.882,0.883,0.883,0.883,0.883,0.884,0.885,0.886,0.887,0.887,0.888,0.889,0.889,0.89,0.891,0.891,0.892,0.892,0.892,0.894,0.894,0.894,0.896,0.898,0.9,0.9,0.901,0.902,0.901,0.901,0.9,0.899,0.897,0.895,0.894,0.894,0.894,0.894,0.895,0.895,0.896,0.896,0.896,0.896,0.895,0.894,0.893,0.892,0.892,0.893,0.892,0.893,0.894,0.894,0.895,0.895,0.895,0.895,0.894,0.894,0.894,0.894,0.893,0.892,0.892,0.891,0.89,0.89,0.889,0.889,0.888,0.889,0.889,0.89,0.892,0.894,0.895,0.897,0.899,0.901,0.902,0.903,0.903,0.903,0.903,0.903,0.904,0.905,0.905,0.906,0.908,0.91,0.911,0.912,0.914,0.914,0.916,0.917,0.918,0.92,0.921,0.922,0.924,0.924,0.925,0.926,0.927,0.927,0.927,0.927,0.927,0.927,0.927,0.928,0.929,0.93,0.93,0.93,0.932,0.933,0.934,0.935,0.936,0.937,0.938,0.938,0.94,0.941,0.942,0.943,0.944,0.946,0.946,0.948,0.949,0.95,0.951,0.952,0.953,0.954,0.955,0.955,0.957,0.959,0.96,0.961,0.963,0.965,0.966,0.967,0.97,0.972,0.974,0.977,0.98,0.982,0.985,0.988,0.99,0.992,0.994,0.995,0.996,0.997,0.998,0.999,0.999,1,1.001,1.001,1.003,1.004,1.005,1.006,1.007,1.009,1.011,1.013,1.014,1.016,1.017,1.018,1.02,1.02,1.02,1.023,1.025,1.026,1.028,1.029,1.03,1.031,1.032,1.032,1.032,1.031,1.033,1.034,1.035,1.036,1.037,1.038,1.038,1.039,1.04,1.041,1.042,1.044,1.046,1.048,1.049,1.052,1.054,1.055,1.057,1.059,1.06,1.063,1.064,1.066,1.069,1.071,1.074,1.076,1.078,1.08,1.082,1.085,1.089,1.092,1.094,1.098,1.102,1.104,1.107,1.109,1.112,1.114,1.115,1.119,1.122,1.124,1.126,1.13,1.132,1.134,1.137,1.138,1.139,1.139,1.142,1.145,1.146,1.148,1.151,1.154,1.158,1.167,1.17,1.173,1.175,1.175,1.179,1.18,1.183,1.183,1.184,1.184,1.184,1.185,1.185,1.185,1.184,1.183,1.18,1.18,1.18,1.181,1.181,1.181,1.183,1.183,1.185,1.185,1.184,1.184,1.184,1.184,1.185,1.187,1.189,1.19,1.193,1.194,1.195,1.197,1.197,1.195,1.195,1.195,1.194,1.194,1.194,1.194,1.194,1.194,1.194,1.194,1.194,1.194,1.193,1.193,1.193,1.194,1.194,1.194,1.194,1.195,1.195,1.197,1.198,1.199,1.199,1.201,1.202,1.203,1.205,1.206,1.207,1.209
4.089,4.089,4.074,4.074,4.059,4.059,4.045,4.045,4.045,4.045,4.045,4.045,4.045,4.045,4.03,4.03,4.045,4.03,4.03,4.03,4.03,4.03,4.03,4.03,4.045,4.045,4.059,4.059,4.074,4.089,4.089,4.104,4.104,4.104,4.089,4.089,4.089,4.089,4.089,4.074,4.074,4.074,4.074,4.059,4.059,4.045,4.045,4.03,4.015,4.001,3.986,3.972,3.958,3.944,3.93,3.916,3.902,3.902,3.902,3.888,3.902,3.902,0,0,0,0,0,0,0,0,0,0,0,0,0,0,0,0,0,0,0,0,0,0,0,0,0,0,0,1.119,1.119,1.122,1.122,1.123,1.124,1.124,1.125,1.125,1.125,1.126,1.127,1.127,1.129,1.13,1.131,1.132,1.133,1.133,1.133,0,0,0,0,0,0,0,0,0,0,0,0,0,0,0,0,0,0,0,0,0.701,0.703,0.704,0.705,0.705,0.706,0.706,0.707,0.707,0.708,0.709,0.709,0.71,0.711,0.712,0.713,0.713,0.714,0.714,0.714,0.714,0.714,0.714,0.714,0.714,0.715,0.714,0.715,0.715,0.716,0.716,0.716,0,0,0,0,0,0,0,0,0,0,0,0,0,0,0,0,0,0,0,0,0,0,0,0.908,0.907,0.905,0.904,0.904,0.902,0.902,0.902,0.901,0.9,0.9,0.899,0.899,0.898,0.897,0.895,0.894,0.892,0.89,0.889,0.887,0.886,0.884,0.884,0.883,0.883,0.884,0.884,0.883,0.884,0.886,0.887,0.887,0.887,0.889,0.89,0.891,0.892,0.892,0.893,0.893,0.894,0.894,0.896,0.896,0.897,0.898,0.9,0.902,0.902,0.903,0.903,0.902,0.902,0.902,0.9,0.899,0.897,0.896,0.895,0.895,0.896,0.897,0.897,0.897,0.898,0.897,0.897,0.896,0.895,0.894,0.894,0.894,0.894,0.894,0.894,0.895,0.896,0.897,0.897,0.897,0.896,0.895,0.895,0.894,0.895,0.894,0.894,0.892,0.892,0.892,0.892,0.891,0.89,0.889,0.889,0.89,0.892,0.894,0.895,0.897,0.897,0.9,0.901,0.902,0.903,0.904,0.903,0.903,0.903,0.904,0.905,0.905,0.905,0.907,0.909,0.91,0.911,0.913,0.914,0.915,0.916,0.917,0.919,0.92,0.922,0.924,0.924,0.925,0.926,0.927,0.927,0.927,0.926,0.926,0.927,0.927,0.928,0.929,0.93,0.93,0.93,0.931,0.932,0.933,0.934,0.934,0.935,0.937,0.938,0.938,0.94,0.941,0.942,0.943,0.945,0.946,0.947,0.949,0.95,0.951,0.952,0.953,0.954,0.955,0.956,0.958,0.959,0.961,0.963,0.964,0.965,0.967,0.969,0.97,0.974,0.976,0.979,0.982,0.984,0.988,0.99,0.993,0.996,0.997,0.997,0.998,0.999,1,1,1.001,1.001,1.002,1.003,1.004,1.005,1.006,1.007,1.007,1.009,1.01,1.012,1.013,1.014,1.016,1.016,1.017,1.018,1.019,1.021,1.023,1.025,1.026,1.028,1.029,1.031,1.031,1.031,1.03,1.031,1.031,1.033,1.034,1.035,1.036,1.037,1.038,1.038,1.039,1.039,1.04,1.042,1.044,1.046,1.048,1.051,1.053,1.056,1.057,1.06,1.062,1.062,1.063,1.065,1.068,1.07,1.073,1.076,1.078,1.08,1.082,1.085,1.088,1.091,1.093,1.096,1.098,1.101,1.103,1.106,1.108,1.11,1.113,1.116,1.119,1.122,1.125,1.129,1.132,1.134,1.137,1.139,1.138,1.139,1.141,1.144,1.144,1.146,1.148,1.151,0,1.163,1.168,1.17,1.173,1.174,1.178,1.179,1.18,1.181,1.181,1.181,1.183,1.183,1.184,1.183,1.183,1.18,1.179,1.179,1.178,1.178,1.178,1.178,1.179,1.18,1.183,1.184,1.184,1.184,1.184,1.185,1.187,1.188,1.189,1.19,1.193,1.194,1.195,1.195,1.195,1.195,1.195,1.195,1.194,1.194,1.194,1.194,1.194,1.194,1.194,1.194,1.194,1.194,1.194,1.194,1.194,1.194,1.194,1.194,1.194,1.195,1.195,1.197,1.198,1.199,1.201,1.202,1.203,1.205,1.206,1.207,1.209,1.21
4.089,4.074,4.074,4.059,4.059,4.045,4.045,4.045,4.03,4.03,4.03,4.03,4.03,4.03,4.03,4.03,4.03,4.03,4.03,4.03,4.03,4.03,4.03,4.03,4.045,4.045,4.059,4.059,4.059,4.074,4.074,4.089,4.089,4.089,4.089,4.089,4.074,4.074,4.074,4.074,4.059,4.074,4.059,4.059,4.059,4.045,4.03,4.03,4.015,4.001,3.986,3.958,3.944,3.93,3.916,3.916,3.902,3.888,3.888,3.875,3.875,3.875,3.888,0,0,0,0,0,0,0,0,0,0,0,0,0,0,0,0,0,0,0,0,0,0,0,0,0,0,0,1.118,1.119,1.121,1.122,1.123,1.124,1.124,1.124,1.124,1.125,1.125,1.126,1.129,1.13,1.13,1.132,0,0,0,0,0,0,0,0,0,0,0,0,0,0,0,0,0,0,0,0,0,0.699,0.701,0.703,0.704,0.705,0.706,0.707,0.708,0.709,0.709,0.709,0.71,0.711,0.712,0.713,0.713,0.714,0.714,0.715,0.715,0.715,0.714,0.714,0.714,0.715,0.714,0.715,0.714,0.714,0.714,0.714,0.715,0.715,0.715,0,0,0,0,0,0,0,0,0,0,0,0,0,0,0,0,0,0,0,0,0,0,0,0,0,0.906,0.905,0.903,0.902,0.902,0.902,0.901,0.9,0.9,0.899,0.898,0.897,0.896,0.894,0.893,0.892,0.89,0.888,0.887,0.886,0.884,0.884,0.884,0.884,0.884,0.884,0.884,0.885,0.886,0.887,0.887,0.888,0.889,0.89,0.892,0.894,0.894,0.894,0.895,0.896,0.897,0.898,0.899,0.9,0.901,0.903,0.904,0.905,0.905,0.905,0.904,0.904,0.902,0.902,0.9,0.899,0.898,0.897,0.898,0,0.899,0.899,0.9,0.9,0.899,0.898,0.897,0.896,0.895,0.895,0.895,0.896,0.896,0.896,0.897,0.898,0.898,0.898,0.898,0.897,0.896,0.896,0.896,0.896,0.895,0.894,0.893,0.893,0.893,0.892,0.892,0.892,0.891,0.891,0.892,0.892,0.894,0.895,0.897,0.898,0.9,0.901,0.902,0.903,0.904,0.904,0.903,0.903,0.904,0.905,0.905,0.905,0.906,0.908,0.909,0.911,0.912,0.913,0.914,0.915,0.917,0.918,0.92,0.921,0.922,0.923,0.924,0.924,0.924,0.925,0.925,0.925,0.925,0.925,0.926,0.927,0.928,0.929,0.93,0.93,0.93,0.931,0.932,0.933,0.934,0.934,0.935,0.936,0.938,0.938,0.94,0.942,0.942,0.944,0.946,0.947,0.949,0.95,0.951,0.952,0.953,0.954,0.955,0.956,0.958,0.959,0.962,0.964,0.965,0.967,0.969,0.97,0.972,0.975,0.977,0.98,0.983,0.987,0.989,0.993,0.996,0.997,0.998,1,1,1.001,1.002,1.002,1.002,1.003,1.004,1.004,1.005,1.006,1.007,1.007,1.008,1.009,1.01,1.011,1.012,1.013,1.015,1.015,1.016,1.018,1.019,1.02,1.022,1.024,1.025,1.027,1.028,1.029,1.03,1.03,1.029,1.03,1.03,1.032,1.032,1.034,1.035,1.036,1.037,1.038,1.039,1.039,1.039,1.041,1.044,1.045,1.047,1.05,1.052,1.055,1.057,1.059,1.062,1.062,1.063,1.065,1.068,1.07,1.072,1.075,1.078,1.08,1.082,1.085,1.088,1.089,1.092,1.093,1.095,1.097,1.099,1.102,1.105,1.106,1.109,1.113,1.116,1.119,1.123,1.125,1.129,1.131,1.133,1.135,1.134,1.135,1.138,1.139,1.141,1.142,1.144,1.146,0,1.159,1.164,1.168,1.169,1.171,1.175,1.176,1.179,1.179,1.179,1.18,1.181,1.181,1.181,1.181,1.18,1.179,1.176,1.176,1.175,1.175,1.175,1.175,1.178,1.179,1.18,1.183,1.184,1.185,1.185,1.187,1.188,1.188,1.189,1.192,1.193,1.194,1.194,1.195,1.195,1.195,1.195,1.195,1.195,1.194,1.194,1.194,1.194,1.194,1.194,1.194,1.194,1.194,1.194,1.194,1.194,1.194,1.194,1.194,1.194,1.195,1.195,1.197,1.198,1.199,1.201,1.202,1.203,1.205,1.207,1.209,1.21,1.211
4.074,4.059,4.059,4.059,4.045,4.045,4.03,4.03,4.03,4.03,4.03,4.03,4.03,4.03,4.03,4.03,4.015,4.03,4.03,4.015,4.03,4.03,4.03,4.045,4.045,4.059,4.059,4.074,4.074,4.074,4.074,4.089,4.074,4.074,4.089,4.089,4.074,4.074,4.074,4.074,4.059,4.059,4.059,4.059,4.045,4.045,4.03,4.015,4.015,4.001,3.986,3.972,3.944,3.93,3.916,3.902,3.888,3.875,3.875,3.861,3.861,3.861,3.861,3.875,3.875,3.875,3.875,0,0,0,0,0,0,0,0,0,0,0,0,0,0,0,0,0,0,0,0,0,0,0,1.118,1.118,1.119,1.121,1.122,1.123,1.123,1.124,1.125,1.125,1.125,1.126,0,0,0,0,0,0,0,0,0,0,0,0,0,0,0,0,0,0,0,0,0,0.692,0.693,0.695,0.698,0.701,0.702,0.705,0.705,0.707,0.708,0.709,0.71,0.71,0.711,0.712,0.713,0.714,0.715,0.715,0.716,0.716,0.717,0.716,0.716,0.716,0.715,0.715,0.715,0.715,0.715,0.714,0.714,0.714,0.713,0.713,0.713,0.714,0,0,0,0,0,0,0,0,0,0,0,0,0,0,0,0,0,0,0,0,0,0,0,0,0,0,0,0.905,0.904,0.902,0.902,0.902,0.901,0.9,0.9,0.899,0.897,0.897,0.896,0.894,0,0.892,0.89,0.889,0.888,0.888,0.887,0.887,0.887,0.887,0.887,0.887,0.887,0,0,0,0,0.889,0.89,0,0,0,0.895,0.896,0.897,0.898,0.899,0.9,0.9,0.902,0.902,0.905,0,0.906,0.906,0.905,0.905,0.905,0.905,0.904,0.902,0.902,0.901,0.901,0.901,0.902,0,0.901,0.902,0.901,0.9,0.9,0.899,0.897,0.897,0.897,0.897,0.897,0.897,0.898,0.898,0.9,0.9,0.9,0.9,0.898,0.897,0.897,0.897,0.897,0.896,0.894,0.894,0.894,0.894,0.894,0.893,0.893,0.892,0.892,0.892,0.893,0.894,0.895,0.897,0.897,0.899,0.901,0.902,0.903,0.904,0.905,0.904,0.904,0.905,0.905,0.905,0.905,0.906,0.908,0.909,0.91,0.911,0.912,0.914,0.915,0.916,0.917,0.919,0.92,0.921,0.922,0.922,0.923,0.923,0.923,0.924,0.924,0.924,0.924,0.925,0.926,0.927,0.927,0.927,0.928,0.929,0.929,0.93,0.931,0.932,0.933,0.934,0.935,0.936,0.938,0.939,0.94,0.942,0.943,0.945,0.946,0.947,0.949,0.95,0.951,0.952,0.953,0.954,0.955,0.958,0.959,0.962,0.965,0.966,0.968,0.97,0.972,0.974,0.976,0.978,0.981,0.984,0.987,0.99,0.994,0.997,0.998,1,1.001,1.002,1.003,1.003,1.004,1.004,1.005,1.005,1.006,1.007,1.007,1.007,1.008,1.009,1.009,1.01,1.01,1.011,1.012,1.014,1.015,1.016,1.017,1.018,1.02,1.021,1.022,1.024,1.025,1.027,1.028,1.029,1.029,1.028,1.029,1.03,1.031,1.032,1.033,1.034,1.036,1.037,1.037,1.038,1.039,1.039,1.04,1.043,1.044,1.046,1.049,1.052,1.055,1.057,1.06,1.062,1.062,1.063,1.064,1.067,1.069,1.072,1.075,1.077,1.08,1.082,1.085,1.088,1.09,1.091,1.092,1.094,1.096,1.097,1.101,1.103,1.105,1.107,1.11,1.114,1.117,1.119,1.122,1.125,1.127,1.129,1.13,1.13,1.132,1.134,1.137,1.138,1.138,1.14,1.142,0,1.153,1.158,1.162,1.164,1.167,1.17,1.174,1.176,1.176,1.178,1.179,1.18,1.18,1.18,1.179,1.179,1.178,1.175,1.174,1.174,1.173,1.174,1.174,1.175,1.176,1.179,1.181,1.184,1.185,1.187,1.187,1.189,1.188,1.19,1.19,1.192,1.193,1.194,1.195,1.195,1.195,1.195,1.195,1.195,1.194,1.194,1.194,1.194,1.194,1.194,1.194,1.195,1.195,1.194,1.194,1.194,1.194,1.194,1.194,1.195,1.195,1.197,1.198,1.199,1.201,1.202,1.203,1.205,1.206,1.209,1.21,1.211,1.212
4.074,4.059,4.059,4.045,4.045,4.03,4.03,4.03,4.015,4.015,4.015,4.015,4.03,4.03,4.015,4.015,4.03,4.03,4.03,4.03,4.03,4.045,4.045,4.059,4.059,4.074,4.074,4.074,4.089,4.074,4.074,4.089,4.089,4.089,4.089,4.089,4.089,4.089,4.089,4.074,4.059,4.059,4.059,4.059,4.059,4.045,4.045,4.03,4.03,4.015,3.986,3.972,3.958,3.944,3.93,3.916,3.902,3.875,3.861,3.848,3.848,3.848,3.848,3.848,3.861,3.848,3.848,0,0,0,0,0,0,0,0,0,0,0,0,0,0,0,0,0,0,0,0,0,0,0,0,0,1.118,0,0,1.123,1.123,1.124,1.124,1.125,0,0,0,0,0,0,0,0,0,0,0,0,0,0,0,0,0,0,0,0,0,0.693,0.695,0.695,0.697,0.698,0.701,0.703,0.705,0.707,0.707,0.708,0.709,0.71,0.711,0.713,0.713,0.714,0.715,0.716,0.717,0.718,0.719,0.719,0.719,0.718,0.718,0.717,0.717,0.716,0.715,0.715,0.715,0.714,0.714,0.713,0.712,0.712,0,0.712,0,0,0,0,0,0,0,0,0,0,0,0,0,0,0,0,0,0,0,0,0,0,0,0,0,0,0,0,0,0,0,0,0.902,0,0,0,0,0,0,0,0,0,0,0,0,0,0,0,0,0,0,0,0,0,0,0,0,0,0,0,0,0,0,0.898,0.9,0.9,0.902,0.902,0.904,0.905,0.905,0.907,0,0.908,0.908,0.906,0.906,0.907,0.906,0.905,0.905,0.905,0.904,0.905,0.905,0,0,0.904,0.904,0.903,0.902,0.902,0.901,0.9,0.899,0.899,0.9,0.9,0.9,0.901,0.901,0.902,0.902,0.902,0.901,0.9,0.899,0.898,0.898,0.897,0.897,0.897,0.896,0.895,0.896,0.895,0.895,0.894,0.893,0.893,0.893,0.894,0.894,0.895,0.896,0.897,0.899,0.901,0.902,0.903,0.904,0.904,0.905,0.905,0.905,0.905,0.906,0.905,0.906,0.907,0.908,0.91,0.911,0.912,0.914,0.914,0.916,0.917,0.918,0.919,0.92,0.92,0.92,0.92,0.921,0.922,0.922,0.922,0.923,0.923,0.924,0.924,0.925,0.926,0.926,0.926,0.927,0.927,0.929,0.93,0.931,0.931,0.932,0.934,0.935,0.936,0.938,0.938,0.94,0.942,0.944,0.946,0.946,0.948,0.95,0.95,0.951,0.952,0.954,0.955,0.958,0.959,0.962,0.965,0.967,0.969,0.971,0.974,0.976,0.977,0.979,0.982,0.985,0.989,0.992,0.995,0.997,0.999,1.001,1.002,1.003,1.004,1.004,1.005,1.005,1.006,1.007,1.007,1.007,1.007,1.007,1.008,1.009,1.009,1.01,1.009,1.01,1.012,1.014,1.015,1.016,1.018,1.019,1.02,1.021,1.023,1.024,1.025,1.026,1.027,1.027,1.028,1.027,1.028,1.03,1.031,1.032,1.033,1.034,1.035,1.036,1.038,1.038,1.039,1.04,1.041,1.044,1.044,1.047,1.049,1.053,1.055,1.058,1.06,1.062,1.062,1.063,1.064,1.066,1.068,1.071,1.074,1.077,1.08,1.083,1.086,1.089,1.09,1.091,1.092,1.093,1.095,1.096,1.098,1.101,1.103,1.106,1.108,1.112,1.114,1.116,1.119,1.122,1.123,1.124,1.125,1.125,1.126,1.129,1.131,1.133,1.134,1.137,1.139,1.144,1.15,1.153,1.157,1.16,1.164,1.168,1.171,1.174,1.175,1.176,1.178,1.179,1.179,1.179,1.179,1.178,1.176,1.175,1.174,1.173,1.173,1.173,1.173,1.175,1.176,1.179,1.181,1.183,1.185,1.187,1.187,1.189,1.189,1.189,1.19,1.19,1.193,1.194,1.195,1.195,1.195,1.195,1.195,1.195,1.195,1.195,1.194,1.194,1.194,1.195,1.197,1.197,1.197,1.195,1.195,1.195,1.195,1.195,1.195,1.195,1.197,1.198,1.199,1.201,1.202,1.203,1.205,1.206,1.209,1.21,1.211,1.212,1.214
4.059,4.059,4.045,4.045,4.045,4.03,4.03,4.015,4.015,4.015,4.015,4.015,4.015,4.015,4.015,4.03,4.045,4.045,4.045,4.045,4.059,4.059,4.059,4.059,4.089,4.089,4.104,4.104,4.104,4.104,4.089,4.104,4.104,4.089,4.089,4.089,4.089,4.089,4.089,4.089,4.074,4.074,4.074,4.074,4.074,4.045,4.059,4.045,4.03,4.015,4.001,3.986,3.972,3.944,3.93,3.902,3.888,3.875,3.861,3.848,3.848,3.835,3.835,3.835,3.835,3.835,3.835,0,0,0,0,0,0,0,0,0,0,0,0,0,0,0,0,0,0,0,0,0,0,0,0,0,0,0,0,0,0,0,0,0,0,0,0,0,0,0,0,0,0,0,0,0,0,0,0,0,0,0,0,0.69,0.693,0.696,0.697,0.698,0.7,0.703,0.705,0.707,0.709,0.71,0.711,0.711,0.712,0.713,0.714,0.715,0.716,0.717,0.718,0.719,0.72,0.721,0.721,0.721,0.721,0.72,0.72,0.719,0.718,0.718,0.716,0.716,0.715,0.715,0.714,0.713,0.712,0.712,0.712,0,0,0,0,0,0,0,0,0,0,0,0,0,0,0,0,0,0,0,0,0,0,0,0,0,0,0,0,0.906,0.905,0,0,0.903,0.902,0.9,0.9,0,0,0,0,0,0,0,0,0,0,0,0,0,0,0,0,0,0,0,0,0,0,0,0,0,0,0,0,0.901,0.902,0.904,0.905,0.905,0.906,0.908,0.908,0.909,0.909,0.908,0.908,0.908,0.907,0.907,0.908,0.907,0.907,0.907,0.907,0.907,0.907,0.907,0.906,0.905,0.905,0.904,0.902,0.902,0.902,0.901,0.901,0.901,0.901,0.902,0.903,0.903,0.903,0.903,0.903,0.903,0.902,0.901,0.9,0.9,0.9,0.9,0.9,0.899,0.898,0.898,0.898,0.898,0.897,0.897,0.895,0.894,0.894,0.894,0.894,0.895,0.896,0.896,0.898,0.9,0.902,0.902,0.904,0.905,0.905,0.906,0.907,0.906,0.906,0.906,0.906,0.907,0.908,0.909,0.911,0.911,0.913,0.914,0.916,0.917,0.917,0.918,0.918,0.919,0.919,0.92,0.92,0.92,0.921,0.921,0.921,0.922,0.923,0.924,0.924,0.924,0.924,0.926,0.927,0.927,0.928,0.93,0.93,0.93,0.931,0.933,0.934,0.935,0.937,0.938,0.939,0.941,0.943,0.945,0.946,0.946,0.948,0.95,0.95,0.951,0.953,0.955,0.957,0.96,0.962,0.965,0.967,0.97,0.972,0.974,0.976,0.977,0.98,0.983,0.986,0.989,0.993,0.996,0.997,1,1.002,1.003,1.004,1.004,1.005,1.006,1.006,1.007,1.007,1.007,1.007,1.007,1.008,1.008,1.008,1.008,1.008,1.008,1.01,1.011,1.013,1.014,1.017,1.018,1.019,1.02,1.021,1.022,1.023,1.023,1.024,1.025,1.025,1.026,1.027,1.028,1.029,1.03,1.031,1.032,1.033,1.035,1.036,1.037,1.038,1.039,1.04,1.042,1.044,1.045,1.046,1.049,1.052,1.055,1.057,1.059,1.06,1.06,1.062,1.063,1.065,1.067,1.07,1.073,1.075,1.079,1.082,1.085,1.088,1.089,1.09,1.091,1.093,1.095,1.096,1.097,1.101,1.103,1.105,1.108,1.11,1.114,1.115,1.117,1.119,1.119,1.121,1.122,1.122,1.124,1.125,1.127,1.13,1.132,1.133,1.135,1.14,1.145,1.148,1.152,1.156,1.159,1.164,1.168,1.171,1.174,1.175,0,1.178,1.179,1.178,1.178,1.176,1.175,1.174,1.174,1.173,1.173,1.173,1.173,1.175,1.176,1.179,1.181,1.184,1.185,1.187,1.188,1.189,1.189,1.189,1.19,1.19,1.193,1.194,1.195,1.195,1.195,1.195,1.195,1.197,1.197,1.195,1.195,1.195,1.197,1.197,1.197,1.197,1.197,1.197,1.197,1.195,1.195,1.197,1.197,1.198,1.199,1.201,1.202,1.203,1.205,1.206,1.207,1.209,1.21,1.211,1.212,1.214,1.215
4.059,4.045,4.045,4.045,4.03,4.03,4.03,4.015,4.015,4.015,4.03,4.015,4.015,4.015,4.03,4.03,4.045,4.045,4.059,4.059,4.074,4.074,4.074,4.104,4.104,4.12,4.12,4.12,4.12,4.104,4.104,4.12,4.104,4.104,4.089,4.104,4.104,4.089,4.089,4.104,4.089,4.089,4.089,4.089,4.074,4.059,4.059,4.059,4.045,4.03,4.015,3.986,3.972,3.958,3.944,3.93,3.902,3.888,3.875,3.848,3.848,3.835,3.848,3.848,3.835,3.835,0,0,0,0,0,0,0,0,0,0,0,0,0,0,0,0,0,0,0,0,0,0,0,0,0,0,0,0,0,0,0,0,0,0,0,0,0,0,0,0,0,0,0,0,0,0,0,0,0,0,0,0,0.688,0.692,0.694,0.697,0.7,0.701,0.704,0.707,0.709,0,0,0,0.715,0.714,0.716,0.716,0.717,0.718,0.719,0.72,0.721,0.721,0.722,0.722,0.722,0.722,0.721,0.721,0.721,0.72,0.719,0.718,0.717,0,0,0.715,0.714,0,0,0,0,0,0,0,0,0,0,0,0,0,0,0,0,0,0,0,0,0,0,0,0,0,0,0,0,0,0,0,0,0,0.907,0.905,0.905,0.904,0.903,0.902,0.9,0,0,0,0,0,0,0,0,0,0,0,0,0,0,0,0,0,0,0,0,0,0,0,0,0,0,0,0,0,0.906,0.907,0.908,0.908,0.909,0.911,0.911,0.911,0,0.91,0.91,0.909,0.908,0.908,0.909,0.908,0.908,0.908,0.908,0.908,0.908,0.908,0.908,0.906,0.905,0.905,0.904,0.904,0.904,0.904,0.904,0.904,0.905,0.905,0.905,0.905,0.905,0.905,0.905,0.905,0.904,0.902,0.902,0.902,0.902,0.902,0.902,0.901,0.901,0.901,0.901,0.901,0.9,0.899,0.897,0.897,0.897,0.896,0.896,0.896,0.896,0.897,0.898,0.9,0.902,0.903,0.904,0.905,0.906,0.907,0.907,0.908,0.907,0.907,0.907,0.907,0.908,0.909,0.91,0.911,0.913,0.914,0.916,0.917,0.917,0.917,0.917,0.918,0.918,0.919,0.919,0.92,0.92,0.92,0.92,0.921,0.922,0.923,0.923,0.924,0.924,0.924,0.925,0.927,0.927,0.928,0.929,0.93,0.93,0.932,0.934,0.934,0.936,0.937,0.938,0.94,0.942,0.943,0.944,0.946,0.947,0.949,0.95,0.951,0.953,0.955,0.958,0.96,0.963,0.966,0.969,0.971,0.973,0.976,0.976,0.979,0.981,0.984,0.987,0.99,0.994,0.997,0.998,1.001,1.003,1.004,1.005,1.005,1.006,1.007,1.007,1.007,1.008,1.008,1.007,1.007,1.008,1.008,1.008,1.008,1.008,1.008,1.009,1.01,1.012,1.014,1.015,1.017,1.019,1.02,1.021,1.021,1.022,1.022,1.023,1.024,1.024,1.025,1.026,1.026,1.028,1.029,1.03,1.031,1.033,1.034,1.035,1.037,1.039,1.039,1.04,1.042,1.044,1.045,1.046,1.048,1.05,1.053,1.056,1.057,1.059,1.059,1.06,1.062,1.065,1.066,1.068,1.071,1.073,1.076,1.079,1.083,1.085,1.088,1.088,1.09,1.093,1.094,1.096,1.097,1.099,1.103,1.105,1.107,1.109,1.112,1.113,1.115,1.118,1.118,1.118,1.119,1.119,1.122,1.124,1.126,1.127,1.13,1.132,1.134,1.138,1.141,1.144,1.147,1.151,1.154,1.159,1.164,1.169,1.171,1.175,1.178,1.179,1.178,1.176,1.176,1.176,1.174,1.173,1.174,1.173,1.173,1.174,1.174,1.175,1.178,1.18,1.183,1.183,1.185,1.187,1.188,1.189,1.189,1.19,1.189,1.19,1.192,1.193,1.194,1.195,1.195,1.195,1.195,1.195,1.197,1.197,1.197,1.197,1.197,1.198,1.198,1.198,1.198,1.198,1.198,1.197,1.197,1.197,1.198,1.198,1.199,1.202,1.203,1.205,1.206,1.207,1.209,1.21,1.211,1.212,1.214,1.216,1.218
4.059,4.045,4.045,4.03,4.03,4.03,4.015,4.015,4.015,4.015,4.015,4.015,4.015,4.015,4.03,4.03,4.045,4.059,4.074,4.074,4.089,4.104,4.104,4.12,4.12,4.135,4.135,4.135,4.135,4.12,4.135,4.12,4.12,4.104,4.104,4.104,4.104,4.089,4.089,4.089,4.089,4.089,4.089,4.074,4.074,4.074,4.059,4.074,4.045,4.045,4.03,4.001,3.986,3.972,3.958,3.93,3.916,3.902,3.875,3.861,3.848,3.848,3.848,3.835,3.835,0,0,0,0,0,0,0,0,0,0,0,0,0,0,0,0,0,0,0,0,0,0,0,0,0,0,0,0,0,0,0,0,0,0,0,0,0,0,0,0,0,0,0,0,0,0,0,0,0,0,0,0,0,0.688,0.693,0.697,0.701,0.704,0.707,0.71,0.713,0,0,0,0.72,0.721,0.72,0.721,0.721,0.721,0.721,0.722,0.722,0.723,0.723,0.724,0.724,0.724,0.724,0.723,0.721,0.721,0.72,0.72,0.718,0.717,0,0,0,0,0,0,0,0,0,0,0,0,0,0,0,0,0,0,0,0,0,0,0,0,0,0,0,0,0,0,0,0,0,0,0,0,0,0,0,0,0.905,0.904,0.902,0.9,0,0,0,0,0,0,0,0,0,0,0,0,0,0,0,0,0,0,0,0,0,0,0,0,0,0,0,0,0,0,0.911,0.911,0.911,0.912,0.913,0.913,0,0,0.913,0.912,0.912,0.912,0.911,0.911,0,0.911,0.911,0.911,0.911,0.91,0.909,0.908,0.907,0.906,0.905,0.905,0.905,0.906,0.906,0.906,0.906,0.906,0.907,0.908,0.907,0.906,0.906,0.906,0.906,0.905,0.904,0.904,0.904,0.905,0.905,0.904,0.904,0.904,0.904,0.905,0.904,0.903,0.902,0.9,0.9,0.899,0.898,0.897,0.897,0.897,0.897,0.898,0.9,0.902,0.903,0.905,0.906,0.906,0.907,0.908,0.907,0.907,0.907,0.907,0.906,0.907,0.908,0.909,0.911,0.912,0.913,0.915,0.916,0.917,0.917,0.917,0.917,0.917,0.918,0.918,0.919,0.919,0.92,0.92,0.92,0.92,0.92,0.921,0.921,0.922,0.923,0.924,0.926,0.927,0.927,0.928,0.93,0.93,0.931,0.933,0.934,0.935,0.936,0.938,0.939,0.941,0.942,0.943,0.944,0.946,0.948,0.95,0.951,0.953,0.955,0.958,0.961,0.964,0.966,0.969,0.971,0.974,0.976,0.977,0.98,0.982,0.986,0.989,0.991,0.994,0.997,0.999,1.002,1.004,1.005,1.006,1.006,1.007,1.007,1.007,1.008,1.008,1.008,1.008,1.008,1.008,1.008,1.008,1.008,1.008,1.008,1.008,1.01,1.012,1.014,1.015,1.017,1.018,1.02,1.02,1.02,1.02,1.021,1.022,1.022,1.023,1.024,1.024,1.025,1.027,1.028,1.029,1.03,1.031,1.033,1.035,1.037,1.038,1.039,1.04,1.042,1.043,1.044,1.045,1.047,1.049,1.052,1.053,1.056,1.057,1.058,1.059,1.063,1.064,1.066,1.067,1.069,1.071,1.074,1.077,1.08,1.083,1.084,1.086,1.089,1.092,1.093,1.095,1.096,1.098,1.101,1.102,1.104,1.106,1.108,1.11,1.113,1.115,1.115,1.116,1.117,1.117,1.119,1.122,1.125,1.127,1.129,1.131,1.133,1.135,1.138,1.14,1.142,1.146,1.15,1.154,1.159,1.165,1.169,1.174,1.175,1.176,1.176,1.175,1.175,1.174,1.174,1.174,1.174,1.174,1.173,1.174,1.175,1.176,1.178,1.18,1.181,1.183,1.185,1.187,1.188,1.189,1.189,1.19,1.189,1.19,1.192,1.193,1.194,1.194,1.194,1.195,1.195,1.195,1.195,1.197,1.197,1.197,1.197,1.198,1.198,1.198,1.198,1.198,1.198,1.198,1.198,1.198,1.199,1.201,1.202,1.202,1.205,1.206,1.207,1.21,1.211,1.211,1.212,1.215,1.216,1.218,1.218
4.059,4.045,4.045,4.03,4.03,4.03,4.015,4.015,4.015,4.015,4.015,4.015,4.015,4.03,4.03,4.045,4.059,4.074,4.089,4.104,4.12,4.12,4.135,4.135,4.151,4.151,4.151,4.151,4.135,4.135,4.12,4.135,4.12,4.12,4.104,4.104,4.089,4.089,4.089,4.104,4.074,4.074,4.074,4.074,4.074,4.074,4.074,4.074,4.059,4.045,4.03,4.015,4.001,3.986,3.958,3.944,3.93,3.902,3.888,3.875,3.875,3.861,3.848,3.835,3.835,0,0,0,0,0,0,0,0,0,0,0,0,0,0,0,0,0,0,0,0,0,0,0,0,0,0,0,0,0,0,0,0,0,0,0,0,0,0,0,0,0,0,0,0,0,0,0,0,0,0,0.676,0.681,0.685,0.69,0.695,0.701,0.706,0.71,0.714,0.718,0.721,0.722,0,0.726,0.726,0.726,0.726,0.725,0.725,0.725,0.725,0.725,0.726,0.725,0.726,0.726,0.726,0.725,0.725,0.724,0.723,0.722,0.721,0.72,0.719,0.717,0.715,0.715,0.714,0,0,0,0,0,0,0,0,0,0,0,0,0,0,0,0,0,0,0,0,0,0,0,0,0,0,0,0,0,0,0,0,0,0,0,0,0,0,0,0,0,0,0,0,0,0,0,0,0,0,0,0,0,0,0,0,0,0,0,0,0.794,0.793,0.793,0.792,0.792,0,0,0,0,0,0,0,0.914,0.914,0.915,0.916,0,0,0,0,0.917,0.917,0.916,0,0,0,0.916,0.914,0.912,0.912,0.911,0.91,0.909,0.908,0.907,0.905,0.905,0.907,0.908,0.908,0.908,0.908,0.908,0.908,0.908,0.908,0.908,0.908,0.908,0.908,0.907,0.906,0.906,0.905,0.906,0.907,0.906,0.906,0.906,0.906,0.906,0.906,0.905,0.904,0.902,0.902,0.901,0.9,0.899,0.899,0.898,0.898,0.9,0.901,0.902,0.902,0.905,0.906,0.907,0.908,0.908,0.907,0.908,0.907,0.907,0.907,0.907,0.908,0.909,0.91,0.911,0.912,0.913,0.914,0.915,0.915,0.916,0.916,0.917,0.917,0.917,0.918,0.918,0.918,0.918,0.918,0.918,0.919,0.92,0.92,0.92,0.922,0.924,0.925,0.927,0.927,0.928,0.93,0.93,0.931,0.932,0.933,0.934,0.936,0.938,0.939,0.94,0.941,0.942,0.943,0.945,0.946,0.949,0.95,0.953,0.955,0.959,0.961,0.964,0.966,0.97,0.971,0.974,0.976,0.978,0.981,0.983,0.987,0.99,0.993,0.996,0.998,1,1.003,1.005,1.006,1.007,1.007,1.007,1.008,1.008,1.009,1.009,1.009,1.008,1.008,1.009,1.008,1.008,1.009,1.008,1.008,1.009,1.011,1.012,1.014,1.015,1.016,1.018,1.02,1.02,1.02,1.02,1.02,1.021,1.021,1.022,1.023,1.024,1.025,1.027,1.027,1.028,1.03,1.031,1.032,1.034,1.036,1.037,1.038,1.04,1.041,1.043,1.044,1.044,1.045,1.047,1.05,1.052,1.054,1.056,1.057,1.059,1.062,1.063,1.065,1.066,1.068,1.069,1.072,1.075,1.078,1.08,1.082,1.084,1.088,1.09,1.092,1.093,1.095,1.096,1.097,1.099,1.101,1.103,1.104,1.106,1.108,1.112,1.112,1.113,1.113,1.115,1.117,1.121,1.124,1.126,1.129,1.13,1.131,1.133,1.135,1.138,1.138,1.141,1.145,1.15,1.156,1.162,1.165,1.17,1.173,1.174,1.174,1.173,1.173,1.173,1.173,1.174,1.173,1.174,1.173,1.175,1.176,1.176,1.178,1.18,1.181,1.181,1.184,1.185,1.187,1.188,1.189,1.189,1.189,1.19,1.192,1.192,1.193,1.194,1.194,1.194,1.195,1.195,1.197,1.197,1.197,1.197,1.198,1.198,1.198,1.198,1.198,1.198,1.198,1.199,1.199,1.199,1.201,1.202,1.202,1.203,1.205,1.207,1.209,1.211,1.212,1.212,1.214,1.216,1.218,1.219,1.22
4.059,4.059,4.045,4.045,4.03,4.03,4.015,4.015,4.015,4.015,4.015,4.03,4.03,4.03,4.045,4.059,4.074,4.089,4.104,4.12,4.135,4.151,4.151,4.166,4.166,4.166,4.166,4.166,4.151,4.151,4.135,4.12,4.12,4.104,4.104,4.089,4.089,4.089,4.089,4.089,4.089,4.089,4.089,4.089,4.089,4.089,4.089,4.074,4.074,4.059,4.045,4.03,4.015,4.001,3.986,3.972,3.944,3.93,3.916,3.888,3.875,3.861,3.848,0,0,0,0,0,0,0,0,0,0,0,0,0,0,0,0,0,0,0,0,0,0,0,0,0,0,0,0,0,0,0,0,0,0,0,0,0,0,0,0,0,0,0,0,0,0,0,0,0,0,0,0,0.675,0,0.685,0.692,0.699,0.706,0,0,0.722,0.726,0.73,0.731,0.732,0.732,0.732,0.732,0.731,0.73,0.729,0.728,0.728,0.728,0.728,0.728,0.728,0.728,0.727,0.727,0.726,0.724,0.724,0.722,0.721,0.721,0.719,0.716,0.715,0.714,0.713,0.712,0,0,0,0,0,0,0,0,0,0,0,0,0,0,0,0,0,0,0,0,0,0,0,0,0,0,0,0,0,0,0,0,0,0,0,0,0,0,0,0,0,0,0,0,0,0,0,0,0,0,0,0,0,0,0,0,0,0,0,0,0,0,0,0,0,0,0,0,0,0,0,0,0,0.919,0,0,0,0,0.92,0.92,0.92,0.919,0.918,0,0,0.918,0.917,0.914,0,0,0.911,0.91,0.908,0.907,0.905,0,0,0,0,0.908,0.909,0.909,0.909,0.909,0.909,0.908,0.908,0.908,0.908,0.908,0.908,0.908,0.908,0.908,0.909,0.908,0.908,0.908,0.908,0.908,0.908,0.907,0.905,0.904,0.903,0.902,0.902,0.9,0.9,0.9,0.9,0.9,0.902,0.902,0.903,0.905,0.906,0.907,0.908,0.908,0.908,0.908,0.908,0.908,0.907,0.907,0.908,0.908,0.909,0.91,0.911,0.912,0.913,0.914,0.914,0.914,0.915,0.916,0.916,0.917,0.917,0.917,0.917,0.917,0.917,0.917,0.917,0.918,0.919,0.92,0.921,0.923,0.925,0.926,0.927,0.928,0.929,0.93,0.93,0.932,0.933,0.934,0.935,0.937,0.938,0.939,0.94,0.941,0.942,0.944,0.946,0.948,0.95,0.953,0.955,0.959,0.962,0.965,0.967,0.97,0.972,0.974,0.976,0.978,0.982,0.985,0.989,0.992,0.995,0.997,0.999,1.001,1.004,1.005,1.007,1.007,1.007,1.008,1.008,1.009,1.009,1.01,1.009,1.009,1.009,1.009,1.009,1.01,1.01,1.01,1.01,1.01,1.012,1.013,1.014,1.015,1.016,1.017,1.019,1.019,1.019,1.02,1.02,1.02,1.021,1.022,1.023,1.024,1.025,1.027,1.028,1.028,1.029,1.03,1.032,1.033,1.035,1.036,1.038,1.039,1.041,1.042,1.043,1.044,1.044,1.046,1.049,1.051,1.053,1.055,1.057,1.059,1.062,1.064,1.065,1.066,1.067,1.069,1.071,1.074,1.077,1.079,1.081,1.084,1.086,1.089,1.091,1.092,1.093,1.094,1.095,1.096,1.098,1.099,1.101,1.103,1.105,1.107,1.108,1.109,1.11,1.113,1.115,1.118,1.122,1.124,1.127,1.129,1.13,1.132,1.133,1.134,1.135,1.138,1.141,1.146,1.152,1.158,1.163,1.168,1.17,1.171,1.171,1.171,1.171,1.171,1.171,1.173,1.174,1.174,1.174,1.176,1.178,1.179,1.179,1.179,1.18,1.181,1.183,1.185,1.187,1.188,1.189,1.19,1.19,1.192,1.192,1.193,1.193,1.194,1.194,1.194,1.195,1.195,1.197,1.195,1.197,1.197,1.198,1.198,1.198,1.198,1.198,1.199,1.199,1.199,1.201,1.201,1.202,1.203,1.205,1.206,1.207,1.209,1.21,1.211,1.212,1.214,1.216,1.218,1.22,1.222,1.223
4.059,4.059,4.045,4.045,4.03,4.03,4.015,4.015,4.015,4.03,4.03,4.03,4.03,4.045,4.059,4.074,4.089,4.104,4.135,4.135,4.151,4.166,4.166,4.182,4.182,4.182,4.182,4.182,4.166,4.151,4.151,4.135,0,0,0,4.104,4.089,4.089,4.104,4.104,4.104,4.104,4.104,4.104,4.104,4.104,4.089,4.089,4.089,4.074,4.059,4.045,4.03,4.015,4.001,3.986,3.972,3.944,3.916,3.902,0,0,0,0,0,0,0,0,0,0,0,0,0,0,0,0,0,0,0,0,0,0,0,0,0,0,0,0,0,0,0,0,0,0,0,0,0,0,0,0,0,0,0,0,0,0,0,0,0.65,0.653,0.658,0,0,0.665,0.671,0.674,0.678,0.683,0.692,0.702,0.711,0.719,0.724,0.729,0.733,0.736,0.737,0.737,0.737,0.736,0.735,0.734,0.733,0.732,0.731,0.731,0.731,0.73,0.73,0.729,0.728,0.728,0.727,0.726,0.724,0.724,0.722,0.721,0.72,0.719,0.716,0,0,0.711,0,0,0,0,0,0,0,0,0,0,0,0,0,0,0,0,0,0,0,0,0,0,0,0,0,0,0,0,0,0,0,0,0,0,0,0,0,0,0,0,0,0,0,0,0,0,0,0,0,0,0,0,0,0,0,0,0,0,0,0,0,0,0,0,0,0,0,0,0,0,0,0,0,0,0,0,0,0,0,0,0,0,0,0,0,0,0.922,0.919,0.917,0,0,0.913,0.911,0.909,0,0,0,0,0,0,0.911,0.911,0.91,0.911,0.911,0.911,0.91,0.91,0.91,0.91,0.911,0.91,0.91,0.911,0.911,0.911,0.911,0.911,0.911,0.91,0.91,0.909,0.908,0.906,0.905,0.904,0.903,0.902,0.902,0.901,0.901,0.902,0.902,0.903,0.903,0.904,0.905,0.907,0.907,0.908,0.908,0.908,0.908,0.908,0.908,0.907,0.907,0.908,0.908,0.908,0.909,0.91,0.911,0.912,0.913,0.913,0.914,0.914,0.914,0.915,0.915,0.915,0.915,0.915,0.915,0.915,0.916,0.917,0.917,0.918,0.92,0.921,0.923,0.925,0.926,0.927,0.928,0.929,0.93,0.93,0.932,0.933,0.934,0.934,0.936,0.938,0.938,0.939,0.94,0.941,0.942,0.945,0.947,0.95,0.952,0.955,0.959,0.962,0.965,0.967,0.97,0.972,0.974,0.976,0.979,0.982,0.986,0.989,0.993,0.996,0.998,1,1.002,1.004,1.005,1.007,1.007,1.008,1.008,1.008,1.009,1.01,1.01,1.009,1.009,1.01,1.01,1.01,1.011,1.011,1.011,1.011,1.011,1.013,1.014,1.014,1.015,1.016,1.017,1.018,1.018,1.019,1.019,1.02,1.02,1.021,1.022,1.023,1.023,1.025,1.026,1.028,1.028,1.029,1.03,1.032,1.033,1.035,1.036,1.037,1.039,1.04,1.042,1.043,1.044,1.044,1.046,1.049,1.05,1.053,1.055,1.057,1.059,1.063,1.064,1.065,1.066,1.067,1.068,1.071,1.074,1.076,1.078,1.081,1.083,1.086,1.089,1.091,1.092,1.093,1.094,1.094,1.095,1.096,1.097,1.098,1.099,1.103,1.104,1.105,1.107,1.108,1.109,1.114,1.116,1.119,1.122,1.125,1.126,1.13,1.131,1.132,1.132,1.133,1.135,1.139,1.144,1.148,1.154,1.159,1.165,1.167,1.169,1.17,1.17,1.169,1.17,1.17,1.171,1.173,1.174,1.175,1.176,1.178,1.179,1.18,1.18,1.18,1.181,1.183,1.185,1.187,1.188,1.189,1.189,1.19,1.192,1.193,1.193,1.193,1.194,1.194,1.194,1.195,1.195,1.197,1.197,1.197,1.197,1.198,1.198,1.199,1.199,1.199,1.199,1.201,1.201,1.201,1.202,1.203,1.203,1.206,1.207,1.209,1.21,1.211,1.212,1.214,1.216,1.218,1.22,1.222,1.225,1.226
4.059,4.059,4.045,4.045,4.03,4.03,4.03,4.03,4.03,4.03,4.03,4.03,4.03,4.045,4.059,4.089,4.104,4.12,4.135,4.151,4.166,4.182,4.182,4.182,4.182,4.198,4.198,4.182,4.182,0,0,0,0,0,0,0,0,0,0,0,0,0,0,0,0,0,0,0,0,0,0,0,0,0,0,0,0,0,0,0,0,0,0,0,0,0,0,0,0,0,0,0,0,0,0,0.661,0.661,0.661,0.66,0.66,0.66,0.66,0.661,0.661,0.661,0.66,0.66,0.66,0.66,0.659,0.66,0.658,0.658,0,0,0,0,0,0,0,0,0,0,0,0.645,0.647,0.648,0.65,0.652,0.655,0.658,0,0.663,0.665,0.67,0.673,0.677,0.68,0.688,0,0,0.724,0.729,0.734,0.737,0.739,0.741,0.74,0.74,0.74,0.739,0.737,0.736,0.734,0.733,0.732,0.731,0.731,0.73,0.729,0.728,0.727,0.727,0.725,0.724,0.723,0.721,0.721,0,0,0,0,0.712,0.711,0.709,0.709,0,0,0,0,0,0,0,0,0,0,0,0,0,0,0,0,0,0,0,0,0,0,0,0,0,0,0,0,0,0,0,0,0,0,0,0,0,0,0,0,0,0,0,0,0,0,0,0,0,0,0,0,0,0,0,0.801,0.8,0.8,0.799,0.798,0.797,0.797,0,0,0.796,0.796,0.797,0,0,0,0,0,0,0,0,0,0,0,0,0,0.924,0.924,0.924,0.924,0.924,0,0,0,0,0,0,0,0,0,0,0,0,0,0.912,0.912,0.913,0.914,0.914,0.913,0.913,0.913,0.913,0.914,0.914,0.914,0.913,0.914,0.914,0.914,0.914,0.914,0.913,0.912,0.912,0.911,0.91,0.908,0.906,0.905,0.905,0.904,0.902,0.902,0.902,0.903,0.904,0.905,0.905,0.905,0.905,0.907,0.908,0.908,0.908,0.908,0.908,0.908,0.908,0.907,0.908,0.908,0.908,0.908,0.908,0.908,0.91,0.911,0.912,0.912,0.913,0.913,0.914,0.914,0.914,0.914,0.914,0.914,0.914,0.914,0.914,0.916,0.917,0.918,0.92,0.921,0.923,0.924,0.926,0.927,0.927,0.929,0.93,0.93,0.932,0.932,0.934,0.934,0.936,0.937,0.938,0.938,0.939,0.94,0.942,0.944,0.946,0.95,0.952,0.955,0.959,0.962,0.965,0.968,0.97,0.973,0.974,0.976,0.979,0.983,0.987,0.99,0.994,0.997,0.999,1.001,1.002,1.004,1.006,1.006,1.007,1.007,1.008,1.008,1.009,1.01,1.01,1.01,1.01,1.01,1.01,1.01,1.012,1.012,1.012,1.012,1.012,1.014,1.014,1.015,1.015,1.016,1.017,1.018,1.018,1.019,1.019,1.02,1.02,1.021,1.022,1.023,1.024,1.025,1.027,1.027,1.029,1.029,1.03,1.032,1.033,1.035,1.036,1.037,1.039,1.04,1.042,1.043,1.043,1.044,1.046,1.048,1.05,1.053,1.055,1.057,1.059,1.063,1.064,1.065,1.065,1.067,1.069,1.071,1.073,1.076,1.078,1.08,1.083,1.086,1.089,1.091,1.092,1.092,1.093,1.094,1.095,1.095,1.096,1.097,1.098,1.102,1.104,1.105,1.107,1.108,1.11,1.114,1.116,1.119,1.121,1.124,1.126,1.129,1.13,1.13,1.131,1.133,1.135,1.139,1.142,1.147,1.153,1.157,1.164,1.165,1.169,1.169,1.17,1.169,1.17,1.17,1.171,1.174,1.174,1.175,1.178,1.179,1.18,1.181,1.18,1.18,1.181,1.183,1.184,1.187,1.188,1.189,1.189,1.19,1.192,1.193,1.194,1.194,1.194,1.194,1.195,1.195,1.195,1.197,1.197,1.198,1.198,1.199,1.198,1.199,1.199,1.201,1.201,1.201,1.202,1.202,1.202,1.205,1.206,1.207,1.209,1.21,1.211,1.214,1.215,1.216,1.218,1.22,1.222,1.225,1.226,1.227
4.059,4.059,4.045,4.045,4.03,4.03,4.03,4.03,4.03,4.03,4.03,4.03,4.045,4.059,4.074,4.089,4.12,4.135,4.151,4.166,4.182,4.182,4.182,4.198,4.198,4.198,4.198,0,0,0,0,0,0,0,0,0,0,0,0,0,0,0,0,0,0,0,0,0,0,0,0,0,0,0,0,0,0,0,0,0,0,0,0,0,0,0,0,0,0,0,0,0,0,0.662,0.661,0.661,0.661,0.661,0.66,0.66,0.66,0.66,0.661,0.661,0.661,0.661,0.66,0.66,0.66,0.66,0.66,0.659,0.659,0,0,0,0,0,0,0,0,0,0,0.646,0.647,0.648,0.65,0.651,0.653,0.655,0.658,0.661,0.663,0.664,0.668,0.671,0.675,0,0,0,0.721,0.73,0.734,0.739,0.74,0.742,0.742,0.743,0.742,0.741,0.74,0.739,0.737,0.735,0.734,0.733,0.732,0.731,0.73,0.728,0.727,0.726,0.725,0.723,0.722,0.721,0.72,0.719,0,0,0,0,0,0.71,0.709,0.707,0,0,0,0,0,0,0,0,0,0,0,0,0,0,0,0,0,0,0,0,0,0,0,0,0,0,0,0,0,0,0,0,0,0,0,0,0,0,0,0,0,0,0,0,0,0,0,0,0,0,0,0,0,0,0.801,0.802,0.801,0.801,0.801,0.8,0.8,0.8,0.799,0.798,0.798,0.798,0.798,0.798,0,0,0,0,0,0,0,0,0,0,0,0,0,0,0,0,0,0,0,0,0,0,0,0,0,0,0,0,0,0,0,0,0.915,0.916,0.916,0.916,0,0,0,0,0,0.917,0.917,0.917,0.917,0.917,0.917,0.917,0.915,0.915,0.914,0.913,0.911,0.909,0.908,0.907,0.906,0.905,0.905,0.905,0.905,0.905,0.905,0.906,0.906,0.906,0.906,0.908,0.908,0.908,0.908,0.908,0.908,0.908,0.908,0.908,0.908,0.908,0.908,0.907,0.908,0.908,0.909,0.911,0.911,0.911,0.911,0.913,0.913,0.914,0.914,0.913,0.913,0.911,0.912,0.913,0.914,0.914,0.917,0.918,0.92,0.921,0.924,0.925,0.927,0.927,0.928,0.929,0.93,0.93,0.932,0.932,0.934,0.934,0.936,0.937,0.938,0.938,0.939,0.94,0.942,0.944,0.946,0.95,0.953,0.956,0.959,0.962,0.965,0.968,0.97,0.972,0.975,0.976,0.979,0.983,0.987,0.99,0.994,0.997,0.999,1.001,1.003,1.004,1.005,1.006,1.007,1.007,1.007,1.008,1.008,1.009,1.01,1.01,1.01,1.01,1.011,1.012,1.012,1.013,1.013,1.013,1.014,1.015,1.015,1.015,1.016,1.016,1.017,1.018,1.018,1.019,1.019,1.02,1.02,1.021,1.022,1.023,1.024,1.025,1.027,1.027,1.028,1.03,1.03,1.032,1.033,1.034,1.035,1.037,1.039,1.04,1.042,1.043,1.044,1.044,1.046,1.049,1.051,1.053,1.055,1.057,1.059,1.062,1.064,1.065,1.065,1.067,1.069,1.071,1.073,1.075,1.078,1.079,1.082,1.086,1.088,1.09,1.091,1.092,1.094,1.094,1.094,1.094,1.095,1.096,1.098,1.102,1.104,1.106,1.107,1.11,1.113,1.115,1.117,1.118,1.119,1.122,1.124,1.126,1.129,1.13,1.13,1.132,1.135,1.138,1.142,1.146,1.151,1.156,1.162,1.164,1.168,1.169,1.17,1.169,1.169,1.17,1.173,1.174,1.175,1.175,1.178,1.179,1.18,1.181,1.181,1.18,1.181,1.183,1.184,1.185,1.187,1.188,1.189,1.192,1.193,1.194,1.194,1.194,1.194,1.195,1.195,1.195,1.197,1.197,1.198,1.198,1.198,1.199,1.199,1.199,1.199,1.199,1.201,1.201,1.201,1.202,1.203,1.206,1.207,1.209,1.21,1.211,1.212,1.215,1.216,1.219,1.22,1.223,1.225,1.227,1.229,1.23
4.059,4.059,4.045,4.045,4.045,4.03,4.03,4.03,4.03,4.03,4.03,4.03,4.045,4.059,4.074,4.104,4.12,4.151,4.166,4.182,4.182,4.198,4.198,4.198,4.198,4.214,4.198,4.198,0,0,0,0,0,0,0,0,0,0,0,0,0,0,0,0,0,0,0,0,0,0,0,0,0,0,0,0,0,0,0,0,0,0,0,0,0,0,0,0,0,0,0,0,0,0.662,0.661,0.66,0.66,0.661,0.66,0.66,0.66,0.661,0.661,0.661,0.662,0.662,0.662,0.662,0.662,0.662,0.662,0.661,0.661,0.661,0,0,0,0,0,0,0.649,0.648,0.648,0.648,0.649,0.65,0.651,0,0.654,0.656,0.66,0.662,0.663,0.664,0.666,0.668,0.672,0,0,0,0,0.735,0.738,0.741,0.743,0.743,0.744,0.743,0.743,0.743,0.741,0.74,0.739,0.737,0.735,0.733,0.732,0.731,0.729,0.727,0.726,0.724,0.723,0.722,0.721,0.72,0.719,0.718,0.716,0,0,0,0.71,0.709,0.707,0.704,0,0,0,0,0,0,0,0,0,0,0,0,0,0,0,0,0,0,0,0,0,0,0,0,0,0,0,0,0,0,0,0,0,0,0,0,0,0,0,0,0,0,0,0,0,0,0,0,0,0,0,0,0,0,0.803,0.804,0.803,0.803,0.803,0.802,0.802,0.802,0.802,0.801,0.801,0.8,0.8,0.8,0.8,0.8,0.8,0.799,0.798,0.798,0.798,0.798,0.799,0,0,0,0,0,0,0,0,0,0,0,0,0,0,0,0,0,0,0,0,0,0,0,0,0,0,0,0,0,0,0,0,0,0.919,0.92,0.919,0.92,0.92,0.918,0.917,0.917,0.916,0.915,0.914,0.911,0.911,0.91,0.909,0.908,0.908,0.908,0.908,0.908,0.908,0.908,0.908,0.907,0.908,0.908,0.908,0.908,0.908,0.908,0.908,0.908,0.908,0.908,0.908,0.907,0.907,0.907,0.907,0.907,0.908,0.909,0.909,0.911,0.911,0.911,0.911,0.912,0.912,0.912,0.911,0.911,0.911,0.912,0.914,0.914,0.916,0.917,0.92,0.921,0.924,0.924,0.926,0.927,0.928,0.929,0.93,0.93,0.932,0.933,0.934,0.935,0.936,0.937,0.938,0.938,0.939,0.941,0.942,0.944,0.946,0.949,0.952,0.955,0.958,0.961,0.964,0.967,0.97,0.971,0.974,0.976,0.979,0.982,0.986,0.989,0.993,0.996,0.998,1,1.002,1.003,1.004,1.005,1.006,1.006,1.007,1.007,1.008,1.009,1.01,1.01,1.01,1.011,1.011,1.012,1.013,1.014,1.014,1.015,1.015,1.015,1.016,1.016,1.016,1.016,1.017,1.018,1.018,1.019,1.019,1.02,1.021,1.022,1.023,1.023,1.024,1.026,1.027,1.027,1.028,1.029,1.03,1.031,1.032,1.033,1.034,1.035,1.038,1.04,1.041,1.043,1.043,1.044,1.046,1.048,1.05,1.053,1.054,1.056,1.058,1.062,1.064,1.065,1.065,1.067,1.068,1.071,1.073,1.075,1.077,1.079,1.081,1.084,1.086,1.089,1.09,1.09,1.092,1.093,1.093,1.094,1.094,1.096,1.098,1.102,1.105,1.107,1.108,1.112,1.114,1.116,1.117,1.119,1.121,1.122,1.124,1.126,1.127,1.129,1.131,1.132,1.134,1.138,1.141,1.146,1.15,1.156,1.16,1.163,1.167,1.169,1.169,1.17,1.17,1.17,1.171,1.173,1.175,1.175,1.178,1.179,1.18,1.181,1.181,1.181,1.181,1.183,1.184,1.185,1.187,1.188,1.189,1.192,1.193,1.194,1.194,1.194,1.194,1.195,1.195,1.195,1.195,1.197,1.197,1.197,1.198,1.199,1.199,1.199,1.199,1.199,1.201,1.201,1.202,1.203,1.205,1.206,1.207,1.21,1.211,1.212,1.215,1.216,1.219,1.22,1.223,1.226,1.229,1.23,1.233,1.234
4.059,4.059,4.045,4.045,4.03,4.03,4.045,4.03,4.03,4.03,4.03,4.03,0,0,0,0,0,4.151,4.166,4.182,4.182,4.198,4.198,4.198,4.198,4.198,4.198,4.182,0,0,0,0,0,0,0,0,0,0,0,0,0,0,0,0,0,0,0,0,0,0,0,0,0,0,0,0.693,0.693,0,0,0,0,0,0,0,0,0,0,0,0,0,0,0,0,0.661,0.661,0.66,0.66,0.661,0.66,0.661,0.661,0.662,0.662,0.662,0.662,0.663,0.663,0.664,0.664,0.664,0.663,0.663,0.663,0.663,0.662,0.661,0,0,0.656,0.654,0.652,0.651,0.651,0.651,0.652,0.652,0.653,0,0,0,0,0,0,0,0.667,0.668,0.67,0,0,0,0,0.74,0.741,0.742,0.743,0.743,0.744,0.743,0.743,0.743,0.742,0.74,0.738,0.736,0.735,0.733,0.731,0.73,0.727,0.725,0.724,0.722,0.721,0.72,0.719,0.718,0.717,0.716,0.715,0.714,0,0,0.709,0.706,0.704,0.701,0,0,0,0,0,0,0,0,0,0,0,0,0,0,0,0,0,0,0,0,0,0,0,0,0,0,0,0,0,0,0,0,0,0,0,0,0,0,0,0,0,0,0,0,0,0,0,0,0,0,0,0,0,0,0.803,0.804,0.804,0.804,0.804,0.803,0.803,0.803,0.802,0.802,0.801,0.801,0.8,0.8,0.801,0.801,0.801,0.8,0.8,0.8,0.8,0.8,0.801,0.801,0,0,0,0,0,0,0.801,0.801,0.801,0.801,0.801,0.802,0.802,0,0,0,0,0,0,0,0,0,0,0,0,0.924,0.923,0.923,0,0,0,0,0,0.921,0.921,0.921,0.92,0.92,0.92,0.919,0.918,0.917,0.915,0.914,0.913,0.912,0.912,0.912,0.911,0.911,0.911,0.911,0.911,0.91,0.909,0.908,0.908,0.908,0.908,0.908,0.908,0.908,0.908,0.908,0.908,0.908,0.908,0.907,0.906,0.906,0.906,0.905,0.906,0.908,0.908,0.909,0.91,0.91,0.911,0.911,0.911,0.911,0.91,0.91,0.911,0.911,0.913,0.914,0.916,0.917,0.919,0.921,0.923,0.924,0.925,0.927,0.927,0.928,0.93,0.931,0.932,0.933,0.934,0.935,0.937,0.938,0.938,0.939,0.94,0.941,0.942,0.944,0.946,0.949,0.951,0.954,0.957,0.96,0.963,0.966,0.969,0.97,0.972,0.975,0.978,0.981,0.984,0.989,0.991,0.994,0.997,0.999,1.001,1.002,1.003,1.004,1.004,1.005,1.006,1.007,1.007,1.008,1.009,1.01,1.011,1.011,1.012,1.013,1.014,1.014,1.015,1.015,1.016,1.016,1.016,1.016,1.016,1.017,1.017,1.018,1.019,1.019,1.02,1.021,1.022,1.023,1.024,1.024,1.024,1.026,1.027,1.027,1.027,1.028,1.029,1.03,1.031,1.032,1.033,1.035,1.037,1.039,1.041,1.042,1.044,1.044,1.046,1.049,1.05,1.052,1.054,1.056,1.058,1.06,1.064,1.065,1.066,1.067,1.069,1.071,1.072,1.074,1.076,1.077,1.079,1.082,1.083,1.085,1.085,1.086,1.089,1.09,1.091,1.091,1.092,1.094,1.097,1.101,1.104,1.106,1.109,1.112,1.114,1.116,1.118,1.118,1.119,1.121,1.123,1.125,1.126,1.127,1.13,1.132,1.134,1.138,1.141,1.145,1.15,1.154,1.158,1.162,1.165,1.168,1.17,1.169,1.17,1.17,1.171,1.173,1.174,1.175,1.176,1.179,1.18,1.181,1.181,1.181,1.181,1.183,1.184,1.185,1.185,1.188,1.189,1.192,1.192,1.193,1.194,1.194,1.194,1.194,1.195,1.195,1.195,1.195,1.195,1.195,1.197,1.198,1.198,1.198,1.198,1.199,1.199,1.201,1.201,1.203,1.205,1.206,1.207,1.21,1.212,1.214,1.216,1.219,1.222,1.225,1.226,1.229,1.231,1.234,1.235,1.237
4.059,4.059,4.059,4.045,4.03,4.045,4.03,4.03,4.03,0,0,0,0,0,0,0,0,0,4.182,4.182,0,0,0,4.182,0,0,0,0,0,0,0,0,0,0,0,0,0,0,0,0,0,0,0,0,0,0,0,0,0,0,0,0,0.695,0.695,0.695,0.694,0.694,0.694,0.693,0,0,0,0,0,0,0,0,0,0.668,0.666,0.664,0.663,0.662,0.661,0.661,0.66,0.66,0.661,0.661,0.662,0.662,0.663,0.663,0.664,0.664,0.664,0.664,0.664,0.664,0.664,0.664,0.664,0.664,0.664,0.663,0.662,0.661,0,0.657,0.656,0.655,0.653,0.653,0.653,0.653,0.653,0.654,0.655,0.656,0.658,0.66,0.662,0.664,0.664,0.666,0.668,0,0,0,0,0,0.736,0.741,0.742,0.743,0.742,0.742,0.742,0.742,0.742,0.74,0.739,0.737,0.735,0.733,0.732,0.73,0.728,0.725,0.724,0.722,0.721,0.72,0.719,0.717,0.716,0.715,0.715,0.714,0.712,0.71,0.707,0.705,0.702,0.7,0.697,0,0,0,0,0,0,0,0,0,0,0,0,0,0,0,0,0,0,0,0,0,0,0,0,0,0,0,0,0,0,0,0,0,0,0,0,0,0,0,0,0,0,0,0,0,0,0,0,0,0,0,0,0,0,0.803,0.804,0.804,0.804,0.804,0.804,0.803,0.802,0.802,0.802,0.801,0.801,0.8,0.8,0.801,0.801,0.801,0.8,0.8,0.8,0.801,0.801,0.802,0.803,0.803,0.803,0.804,0.804,0.803,0.802,0.802,0.802,0.802,0.802,0.802,0.803,0.803,0,0,0,0,0,0,0,0,0,0,0,0,0.927,0.926,0.926,0.926,0.926,0,0.924,0.923,0.922,0.921,0.922,0.922,0.92,0.92,0.92,0.919,0.918,0.917,0.915,0.915,0.915,0.914,0.914,0.914,0.914,0.914,0.914,0.913,0.911,0.91,0.909,0.909,0.909,0.909,0.908,0.908,0.908,0.908,0.908,0.908,0.908,0.907,0.906,0.905,0.905,0.905,0.905,0.905,0.906,0.907,0.908,0.908,0.908,0.908,0.909,0.91,0.909,0.908,0.908,0.91,0.911,0.913,0.914,0.916,0.917,0.919,0.921,0.923,0.924,0.924,0.926,0.927,0.928,0.93,0.93,0.932,0.933,0.934,0.935,0.936,0.937,0.938,0.938,0.939,0.941,0.942,0.942,0.945,0.947,0.95,0.952,0.955,0.958,0.961,0.964,0.967,0.97,0.971,0.974,0.976,0.98,0.982,0.986,0.989,0.993,0.996,0.997,0.999,1.001,1.002,1.003,1.003,1.004,1.005,1.005,1.006,1.007,1.009,1.01,1.011,1.012,1.013,1.014,1.015,1.015,1.016,1.016,1.016,1.017,1.017,1.017,1.017,1.017,1.018,1.019,1.019,1.02,1.02,1.021,1.023,1.024,1.025,1.025,1.026,1.025,1.026,1.027,1.027,1.028,1.029,1.03,1.03,1.031,1.032,1.034,1.036,1.038,1.04,1.042,1.043,1.044,1.046,1.049,1.05,1.052,1.054,1.056,1.058,1.06,1.064,1.065,1.066,1.068,1.07,1.071,1.072,1.073,1.075,1.076,1.077,1.079,1.08,1.081,1.082,1.083,1.085,1.086,1.088,1.089,1.089,1.092,1.095,1.098,1.102,1.105,1.107,1.11,1.113,1.115,1.117,1.118,1.118,1.121,1.122,1.124,1.126,1.127,1.131,1.133,1.135,1.138,1.141,1.146,1.15,1.153,1.157,1.16,1.164,1.168,1.169,1.17,1.17,1.17,1.171,1.173,1.174,1.175,1.176,1.178,1.179,1.18,1.18,1.181,1.181,1.183,1.183,1.184,1.185,1.187,1.189,1.19,1.192,1.193,1.193,1.194,1.194,1.194,1.194,1.194,1.194,1.195,1.195,1.195,1.195,1.195,1.195,1.195,1.197,1.198,1.198,1.199,1.201,1.202,1.205,1.207,1.21,1.211,1.214,1.216,1.219,1.222,1.225,1.226,1.229,1.231,1.234,1.237,1.238,1.241
4.059,4.045,4.045,4.045,4.03,4.03,4.03,0,0,0,0,0,0,0,0,0,0,0,0,0,0,0,0,0,0,0,0,0,0,0,0,0,0,0,0,0,0,0,0,0,0,0,0,0,0,0,0,0,0,0.697,0.697,0.696,0.696,0.696,0.696,0.695,0.695,0.695,0.694,0.693,0,0,0,0,0,0,0,0.672,0.669,0.666,0.665,0.664,0.662,0.662,0.661,0.661,0.661,0.662,0.662,0.663,0.663,0.664,0.665,0.666,0.666,0.666,0.666,0.666,0.666,0.666,0.666,0.666,0.665,0.665,0.664,0.664,0.662,0.66,0.659,0.658,0.657,0.655,0.654,0.654,0.655,0.655,0.655,0.656,0.657,0.659,0.661,0.663,0.664,0.665,0.666,0.668,0,0,0,0,0,0,0.734,0.737,0.738,0.74,0.741,0.741,0.741,0.74,0.739,0.737,0.735,0.733,0.732,0.73,0.728,0.726,0.723,0.721,0.721,0.719,0.718,0.717,0.716,0.715,0.714,0.713,0.712,0.71,0.708,0.705,0.701,0.699,0.696,0.693,0,0,0,0.685,0.682,0,0,0,0,0,0,0,0,0,0,0,0,0,0,0,0,0,0,0,0,0,0,0,0,0,0,0,0,0,0,0,0,0,0,0,0,0,0,0,0,0,0,0,0,0,0,0,0,0,0.804,0.804,0.804,0.804,0.804,0.804,0.803,0.803,0.803,0.802,0.801,0.801,0.801,0.802,0.802,0.802,0.803,0.804,0.803,0.804,0,0.803,0.804,0.804,0.804,0.804,0.805,0.804,0.804,0.803,0.803,0.803,0.804,0.804,0.804,0.803,0.804,0,0,0,0,0,0,0,0,0,0,0,0,0,0.929,0.93,0.929,0.928,0.926,0.924,0.924,0.923,0.922,0.922,0.922,0.921,0.921,0.92,0.92,0.919,0.917,0.916,0.916,0.915,0.916,0.915,0.915,0.916,0.915,0.915,0.914,0.914,0.912,0.911,0.911,0.91,0.91,0.909,0.908,0.908,0.908,0.908,0.908,0.908,0.907,0.906,0.906,0.905,0.905,0.905,0.905,0.905,0.906,0.906,0.906,0.907,0.908,0.908,0.908,0.908,0.908,0.908,0.909,0.911,0.913,0.914,0.916,0.917,0.919,0.921,0.923,0.924,0.924,0.925,0.927,0.927,0.929,0.93,0.931,0.933,0.934,0.935,0.936,0.937,0.938,0.938,0.938,0.939,0.94,0.942,0.944,0.946,0.949,0.951,0.954,0.957,0.96,0.964,0.966,0.969,0.97,0.973,0.976,0.979,0.981,0.984,0.987,0.99,0.993,0.996,0.997,0.999,1,1.001,1.002,1.003,1.003,1.004,1.006,1.007,1.008,1.01,1.011,1.012,1.013,1.014,1.015,1.015,1.016,1.016,1.017,1.017,1.017,1.017,1.018,1.018,1.019,1.019,1.02,1.02,1.021,1.022,1.023,1.024,1.025,1.026,1.026,1.026,1.026,1.027,1.027,1.028,1.029,1.03,1.03,1.031,1.032,1.034,1.036,1.038,1.04,1.041,1.043,1.044,1.046,1.048,1.051,1.052,1.054,1.056,1.058,1.06,1.063,1.064,1.066,1.068,1.07,1.071,1.073,1.073,1.074,1.075,1.076,1.077,1.078,1.079,1.08,1.08,1.082,1.084,1.085,1.086,1.088,1.09,1.093,1.096,1.099,1.103,1.105,1.108,1.112,1.114,1.115,1.117,1.117,1.119,1.122,1.124,1.125,1.127,1.131,1.133,1.137,1.139,1.142,1.146,1.15,1.153,1.157,1.16,1.164,1.168,1.17,1.171,1.171,1.171,1.171,1.173,1.173,1.174,1.175,1.178,1.179,1.18,1.18,1.181,1.181,1.183,1.183,1.184,1.185,1.185,1.188,1.189,1.19,1.192,1.193,1.194,1.194,1.194,1.194,1.194,1.193,1.194,1.194,1.194,1.194,1.194,1.194,1.194,1.195,1.197,1.198,1.199,1.201,1.202,1.205,1.207,1.211,1.212,1.216,1.218,1.222,1.225,1.226,1.23,1.233,1.235,1.237,1.24,1.242,1.244
4.059,4.045,4.03,4.03,4.03,4.015,4.03,0,0,0,0,0,0,0,0,0,0,0,0,0,0,0,0,0,0,0,0,0,0,0,0,0,0,0,0,0,0,0,0,0,0,0,0,0,0,0,0,0,0,0.698,0.697,0.697,0.697,0.697,0.697,0.697,0.696,0.695,0.694,0.693,0.693,0.691,0.689,0.687,0,0.679,0.676,0.673,0.67,0.667,0.666,0.664,0.663,0.662,0.662,0.662,0.662,0.663,0.663,0.664,0.665,0.666,0.666,0.667,0.667,0.668,0.668,0.668,0.668,0.668,0.667,0.666,0.666,0.666,0.665,0.664,0.663,0.661,0.66,0.659,0.658,0.657,0.656,0.656,0.656,0.656,0.657,0.658,0.658,0.66,0.662,0.663,0.664,0.666,0.667,0.669,0.671,0,0,0,0,0,0.725,0.731,0.736,0.738,0.739,0.739,0.739,0.738,0.737,0.735,0.733,0.731,0.73,0.728,0.726,0.723,0.721,0.72,0.719,0.717,0.717,0.716,0.715,0.714,0.713,0.711,0.71,0.708,0.705,0.702,0,0,0,0.691,0,0.688,0.686,0.685,0.683,0,0,0,0,0,0,0,0,0,0,0,0,0,0,0,0,0,0,0,0,0,0,0,0,0,0,0,0,0,0,0,0,0,0,0,0,0,0,0,0,0,0,0,0,0,0,0,0,0,0.804,0.805,0.805,0.805,0.805,0.804,0.804,0.804,0.804,0.803,0.802,0.802,0.803,0.804,0.804,0.805,0.805,0.805,0.805,0.806,0.805,0.805,0.805,0.805,0.805,0.805,0.806,0.805,0.805,0.804,0.804,0.804,0.804,0.804,0.804,0.804,0.804,0.804,0.804,0.804,0.804,0.802,0,0,0,0,0,0,0,0,0,0,0.93,0.929,0.927,0.926,0.924,0.924,0.923,0.923,0.923,0.922,0.921,0.92,0.92,0.918,0.917,0.917,0.916,0.916,0.916,0.916,0.915,0.916,0.917,0.916,0.915,0.914,0.913,0.912,0.911,0.911,0.91,0.909,0.909,0.908,0.908,0.908,0.908,0.908,0.907,0.906,0.906,0.906,0.905,0.905,0.905,0.905,0.905,0.905,0.905,0.905,0.905,0.906,0.907,0.907,0.907,0.908,0.908,0.911,0.912,0.914,0.915,0.917,0.919,0.92,0.922,0.924,0.924,0.925,0.927,0.927,0.929,0.93,0.932,0.933,0.934,0.935,0.937,0.937,0.938,0.938,0.938,0.938,0.939,0.941,0.942,0.945,0.947,0.95,0.953,0.955,0.959,0.963,0.965,0.968,0.97,0.972,0.975,0.977,0.979,0.982,0.985,0.988,0.99,0.993,0.995,0.997,0.997,0.998,0.999,1,1.001,1.002,1.003,1.006,1.007,1.009,1.011,1.012,1.013,1.014,1.015,1.015,1.016,1.016,1.017,1.018,1.018,1.018,1.018,1.019,1.019,1.02,1.02,1.021,1.022,1.022,1.024,1.025,1.025,1.026,1.026,1.026,1.026,1.027,1.028,1.029,1.029,1.03,1.031,1.031,1.032,1.034,1.036,1.038,1.04,1.042,1.044,1.045,1.047,1.049,1.051,1.053,1.054,1.056,1.058,1.06,1.063,1.065,1.066,1.068,1.07,1.072,1.072,1.073,1.074,1.074,1.075,1.076,1.076,1.077,1.078,1.079,1.081,1.083,1.084,1.086,1.088,1.09,1.092,1.095,1.098,1.101,1.104,1.107,1.109,1.112,1.114,1.115,1.116,1.118,1.121,1.123,1.126,1.127,1.131,1.133,1.137,1.139,1.142,1.146,1.15,1.153,1.157,1.16,1.164,1.168,1.17,1.171,1.171,1.173,1.171,1.173,1.174,1.174,1.175,1.176,1.178,1.179,1.18,1.181,1.183,1.183,1.183,1.184,1.184,1.187,1.188,1.189,1.19,1.192,1.193,1.194,1.194,1.194,1.194,1.194,1.193,1.193,1.193,1.193,1.193,1.194,1.194,1.194,1.194,1.195,1.197,1.198,1.199,1.202,1.205,1.207,1.211,1.214,1.218,1.22,1.223,1.226,1.23,1.233,1.235,1.24,1.241,1.244,1.245,1.248
4.045,4.03,4.03,4.015,4.015,0,0,0,0,0,0,0,0,0,0,0,0,0,0,0,0,0,0,0,0,0,0,0,0,0,0,0,0,0,0,0,0,0,0,0,0,0,0,0,0,0,0,0.699,0.699,0.699,0.699,0.698,0.697,0.698,0.697,0.697,0.697,0.696,0.694,0.693,0.693,0.691,0.689,0.686,0.683,0,0.677,0.674,0.671,0.668,0.667,0.665,0.664,0.664,0.664,0.663,0.664,0.664,0.665,0.666,0.666,0.668,0.668,0.668,0.669,0.669,0.669,0.669,0.669,0.668,0.668,0.667,0.667,0.666,0.666,0.665,0.664,0.662,0.662,0.661,0.66,0.659,0.658,0.658,0.658,0.659,0.659,0.66,0.661,0.662,0.664,0.665,0.666,0.668,0.669,0.67,0.672,0.674,0.676,0.688,0,0,0,0.728,0.733,0.736,0.737,0.737,0.737,0.736,0.735,0.733,0.731,0.729,0.727,0.725,0.723,0.721,0.719,0.717,0.716,0.715,0.715,0.714,0.713,0.712,0.71,0.709,0.707,0.705,0.703,0,0,0,0,0.69,0.688,0.686,0.685,0.684,0.682,0,0,0,0,0,0,0,0,0,0,0,0,0,0,0,0,0,0,0,0,0,0,0,0,0,0,0,0,0,0,0,0,0,0,0,0,0,0,0,0,0,0,0,0,0,0,0,0,0,0,0.806,0.807,0.806,0.805,0.805,0.805,0.805,0.804,0.804,0.802,0.804,0.805,0.806,0.807,0.808,0,0,0,0.81,0.808,0.807,0.807,0.807,0.807,0.807,0.807,0.806,0.805,0.805,0.805,0.805,0.804,0.805,0.804,0.804,0.804,0.804,0.804,0.804,0.804,0.802,0,0,0,0,0,0,0,0,0,0,0,0.93,0,0,0,0.924,0.924,0.924,0.924,0.923,0.922,0.922,0.92,0.92,0.918,0.917,0.916,0.917,0.915,0.916,0.917,0.916,0.916,0.917,0.916,0.914,0.913,0.912,0.912,0.911,0.91,0.91,0.909,0.908,0.908,0.908,0.908,0.908,0.907,0.907,0.906,0.906,0.905,0.905,0.904,0.905,0.904,0.904,0.904,0.905,0.905,0.906,0.906,0.906,0.907,0.908,0.909,0.91,0.911,0.913,0.914,0.916,0.918,0.92,0.922,0.924,0.924,0.925,0.927,0.928,0.93,0.931,0.933,0.934,0.935,0.936,0.937,0.937,0.937,0.938,0.938,0.938,0.938,0.939,0.941,0.943,0.946,0.948,0.951,0.954,0.957,0.961,0.965,0.967,0.969,0.971,0.973,0.976,0.977,0.98,0.982,0.985,0.988,0.99,0.993,0.994,0.995,0.996,0.997,0.998,0.999,1,1.002,1.004,1.007,1.008,1.01,1.011,1.012,1.013,1.014,1.015,1.015,1.015,1.016,1.017,1.017,1.018,1.019,1.019,1.02,1.02,1.021,1.022,1.022,1.023,1.024,1.025,1.025,1.026,1.025,1.026,1.026,1.026,1.027,1.028,1.029,1.03,1.031,1.032,1.033,1.035,1.036,1.037,1.04,1.042,1.044,1.045,1.047,1.05,1.052,1.053,1.054,1.056,1.058,1.06,1.063,1.065,1.067,1.068,1.07,1.071,1.072,1.073,1.073,1.074,1.075,1.076,1.076,1.076,1.077,1.078,1.08,1.082,1.083,1.084,1.086,1.089,1.091,1.094,1.096,1.099,1.103,1.106,1.108,1.11,1.113,1.114,1.116,1.118,1.121,1.124,1.126,1.127,1.131,1.133,1.137,1.14,1.142,1.146,1.15,1.154,1.158,1.162,1.165,1.169,1.171,1.173,1.173,1.173,1.173,1.173,1.174,1.175,1.176,1.178,1.179,1.179,1.18,1.181,1.183,1.183,1.183,1.184,1.184,1.187,1.188,1.189,1.19,1.192,1.192,1.193,1.194,1.194,1.194,1.194,1.192,1.193,1.193,1.193,1.193,1.194,1.193,1.193,1.194,1.195,1.197,1.198,1.199,1.202,1.203,1.207,1.211,1.215,1.218,1.222,1.225,1.229,1.233,1.235,1.24,1.242,1.245,1.247,1.249,1.251
4.03,4.015,4.015,4.001,0,0,0,0,0,0,0,0,0,0,0,0,0,0,0,0,0,0,0,0,0,0,0,0,0,0,0,0,0,0,0,0,0,0,0,0,0,0,0,0,0,0,0.702,0.702,0.701,0.702,0.701,0.701,0.7,0.699,0.698,0.698,0.697,0.697,0.695,0.694,0.692,0.691,0.689,0.686,0.683,0.68,0.677,0.674,0.672,0.669,0.668,0.666,0.666,0.665,0.664,0.665,0.665,0.666,0.666,0.666,0.668,0.669,0.669,0.669,0.67,0.67,0.67,0.67,0.67,0.669,0.668,0.668,0.668,0.668,0.667,0.666,0.666,0.664,0.664,0.663,0.662,0.662,0.661,0.66,0.661,0.661,0.662,0.662,0.663,0.664,0.665,0.666,0.667,0.669,0.67,0.672,0.674,0.675,0.678,0.688,0.7,0,0,0.725,0.731,0.734,0.735,0.735,0.735,0.735,0.733,0.731,0.728,0.726,0.724,0.722,0.72,0.719,0.716,0.715,0.715,0.714,0.713,0.712,0.71,0.709,0.708,0.707,0.705,0.702,0.7,0,0.695,0.692,0.69,0.688,0.686,0.685,0.685,0.683,0.682,0.682,0,0,0,0,0,0,0,0,0,0,0,0,0,0,0,0,0,0,0,0,0,0,0,0,0,0,0,0,0,0,0,0,0,0,0,0,0,0,0,0,0,0,0,0,0,0,0,0,0,0,0,0,0,0,0,0,0.805,0,0.804,0.805,0.807,0,0,0,0,0,0,0.811,0.811,0.809,0.809,0.809,0.808,0.808,0.808,0.808,0.807,0.807,0.806,0.805,0.806,0.805,0.805,0.805,0.804,0.804,0.805,0.804,0.804,0.803,0.802,0,0,0,0,0,0,0,0,0,0,0,0,0,0,0.926,0,0,0.924,0.924,0.923,0.923,0.922,0.92,0.919,0.917,0.917,0.917,0.917,0.917,0.916,0.917,0.916,0.917,0.916,0.915,0.914,0.913,0.912,0.911,0.911,0.91,0.91,0.909,0.908,0.908,0.908,0.908,0.907,0.907,0.906,0.906,0.905,0.905,0.904,0.903,0.903,0.903,0.903,0.904,0.905,0.905,0.906,0.906,0.907,0.908,0.909,0.911,0.911,0.913,0.914,0.916,0.918,0.92,0.922,0.924,0.924,0.926,0.927,0.929,0.93,0.931,0.933,0.934,0.935,0.937,0.938,0.938,0.937,0.938,0.938,0.938,0.938,0.938,0.94,0.942,0.944,0.946,0.949,0.953,0.955,0.959,0.962,0.965,0.967,0.97,0.971,0.974,0.976,0.978,0.981,0.982,0.985,0.988,0.989,0.991,0.992,0.994,0.995,0.996,0.997,0.998,1,1.002,1.005,1.007,1.009,1.01,1.012,1.012,1.013,1.013,1.013,1.014,1.016,1.017,1.018,1.019,1.019,1.02,1.02,1.021,1.022,1.022,1.023,1.023,1.024,1.024,1.025,1.025,1.026,1.026,1.026,1.026,1.027,1.028,1.029,1.03,1.031,1.033,1.034,1.035,1.036,1.038,1.04,1.042,1.044,1.045,1.047,1.049,1.052,1.053,1.055,1.056,1.058,1.06,1.063,1.064,1.066,1.068,1.07,1.071,1.071,1.072,1.073,1.073,1.074,1.075,1.075,1.076,1.077,1.078,1.08,1.081,1.082,1.084,1.086,1.088,1.091,1.093,1.095,1.097,1.101,1.104,1.107,1.109,1.112,1.114,1.116,1.118,1.121,1.124,1.126,1.129,1.13,1.133,1.137,1.14,1.144,1.147,1.151,1.154,1.159,1.162,1.165,1.17,1.173,1.174,1.174,1.174,1.174,1.175,1.175,1.176,1.176,1.178,1.179,1.18,1.181,1.183,1.183,1.184,1.184,1.184,1.184,1.187,1.188,1.19,1.19,1.192,1.192,1.193,1.193,1.194,1.194,1.193,1.192,1.193,1.193,1.193,1.193,1.194,1.193,1.193,1.194,1.195,1.197,1.197,1.199,1.202,1.203,1.209,1.211,1.215,1.219,1.223,1.227,1.231,1.235,1.24,1.242,1.245,1.248,1.251,1.252,1.255
4.015,4.015,4.001,0,0,0,0,0,0,0,0,0,0,0,0,0,0,0,0,0,0,0,0,0,0,0,0,0,0,0,0,0,0,0,0,0,0,0,0,0,0,0,0,0,0,0,0.705,0.704,0.704,0.704,0.703,0.702,0.702,0.701,0.701,0.7,0.699,0.697,0.696,0.694,0.692,0.691,0.689,0.686,0.683,0.68,0.677,0.675,0.672,0.67,0.669,0.668,0.666,0.666,0.666,0.666,0.667,0.667,0.668,0.668,0.669,0.67,0.67,0.67,0.671,0.671,0.671,0.67,0.67,0.67,0.67,0.669,0.668,0.668,0.668,0.667,0.666,0.666,0.665,0.664,0.664,0.664,0.663,0.663,0.663,0.663,0.663,0.664,0.664,0.666,0.666,0.668,0.669,0.67,0.672,0.673,0.675,0.676,0.679,0.689,0.699,0.708,0,0.723,0.729,0.733,0.734,0.734,0.733,0.733,0.731,0.729,0.727,0.724,0.722,0.721,0.719,0.717,0.715,0.714,0.713,0.713,0.711,0.71,0.709,0.708,0.705,0.704,0.702,0.699,0.697,0.694,0.692,0.69,0.688,0.686,0.685,0.685,0.684,0.683,0.682,0.682,0.681,0.68,0.678,0.677,0,0,0,0,0,0,0,0.666,0.665,0.664,0,0,0,0,0,0,0,0,0,0,0,0,0,0,0,0,0,0,0,0,0,0,0,0,0,0,0,0,0,0,0,0,0,0,0,0,0,0,0,0,0,0,0.805,0,0,0.807,0.81,0,0,0.813,0.814,0.814,0.814,0.814,0.813,0.811,0.81,0.81,0.81,0.81,0.81,0.809,0.808,0.807,0.807,0.807,0.807,0.807,0.805,0.805,0.804,0.804,0.804,0.804,0.804,0.803,0.802,0.803,0,0,0,0,0,0,0,0,0,0,0,0,0,0,0,0,0,0.923,0.924,0.923,0.923,0.921,0.92,0.919,0.917,0.917,0.917,0.917,0.917,0.917,0.916,0.917,0.917,0.915,0.914,0.914,0.913,0.912,0.911,0.911,0.911,0.91,0.909,0.909,0.908,0.908,0.907,0.907,0.906,0.906,0.905,0.905,0.904,0.903,0.903,0.903,0.903,0.903,0.904,0.905,0.906,0.907,0.908,0.908,0.91,0.911,0.912,0.913,0.914,0.916,0.918,0.92,0.922,0.924,0.925,0.927,0.928,0.929,0.93,0.932,0.933,0.934,0.936,0.937,0.938,0.938,0.938,0.938,0.938,0.938,0.938,0.938,0.939,0.941,0.943,0.945,0.947,0.95,0.954,0.957,0.959,0.962,0.965,0.968,0.97,0.973,0.975,0.976,0.978,0.981,0.982,0.985,0.987,0.989,0.99,0.991,0.993,0.994,0.996,0.997,0.998,1.001,1.004,1.006,1.007,1.009,1.01,1.011,1.012,1.013,1.013,1.014,1.015,1.017,1.018,1.019,1.02,1.02,1.021,1.022,1.023,1.024,1.023,1.024,1.024,1.025,1.025,1.026,1.026,1.026,1.026,1.027,1.027,1.029,1.03,1.031,1.032,1.033,1.034,1.035,1.036,1.038,1.04,1.042,1.044,1.044,1.047,1.049,1.051,1.053,1.055,1.056,1.058,1.06,1.063,1.064,1.066,1.067,1.069,1.07,1.07,1.071,1.072,1.073,1.074,1.075,1.075,1.076,1.077,1.078,1.079,1.08,1.081,1.083,1.085,1.086,1.09,1.092,1.094,1.096,1.098,1.102,1.106,1.108,1.11,1.114,1.116,1.118,1.121,1.124,1.126,1.129,1.131,1.134,1.138,1.141,1.144,1.147,1.151,1.156,1.159,1.163,1.165,1.169,1.173,1.174,1.175,1.175,1.175,1.176,1.176,1.178,1.178,1.179,1.18,1.181,1.183,1.184,1.184,1.185,1.184,1.185,1.185,1.187,1.188,1.19,1.19,1.19,1.192,1.192,1.192,1.193,1.193,1.192,1.192,1.192,1.192,1.193,1.193,1.193,1.193,1.193,1.193,1.195,1.195,1.197,1.198,1.201,1.203,1.207,1.211,1.215,1.219,1.223,1.229,1.233,1.237,1.241,1.245,1.248,1.251,1.254,1.255,1.256
4.015,4.001,3.986,0,0,0,0,0,0,0,0,0,0,0,0,0,0,0,0,0,0,0,0,0,0,0,0,0,0,0,0,0,0,0,0,0,0,0,0,0,0,0,0,0,0,0.707,0.707,0.706,0.706,0.706,0.706,0.705,0.704,0.703,0.702,0.701,0.7,0.698,0.696,0.694,0.693,0.69,0.688,0.685,0.683,0.68,0.678,0.675,0.673,0.671,0.67,0.668,0.668,0.667,0.667,0.667,0.668,0.668,0.669,0.67,0.67,0.671,0.671,0.671,0.672,0.671,0.671,0.671,0.671,0.671,0.67,0.67,0.669,0.668,0.668,0.668,0.667,0.667,0.666,0.666,0.666,0.666,0.665,0.665,0.665,0.666,0.666,0.666,0.666,0.667,0.668,0.67,0.67,0.672,0.673,0.675,0.676,0.678,0.682,0.69,0.699,0.707,0,0.721,0.728,0.732,0.732,0.732,0.732,0.731,0.73,0.728,0.725,0.723,0.721,0.719,0.718,0.716,0.715,0.714,0.713,0.712,0.711,0.709,0.708,0.705,0.704,0.702,0.699,0.697,0.694,0.692,0.69,0.688,0.687,0.686,0.684,0.684,0.684,0.683,0.682,0.682,0.681,0.679,0.678,0.676,0.675,0.674,0.673,0.671,0,0,0,0.666,0.665,0.664,0.664,0.664,0.664,0,0,0,0,0,0,0,0,0,0,0,0,0,0,0,0,0,0,0,0,0,0,0,0,0,0,0,0,0,0,0,0,0,0,0,0,0,0,0,0,0,0,0,0,0,0,0.817,0.818,0.818,0.818,0.817,0.815,0.813,0.812,0.811,0.811,0.811,0.811,0.81,0.808,0.808,0.808,0.807,0.807,0.807,0.805,0.805,0.804,0.804,0.803,0.803,0.802,0.802,0,0,0,0,0,0,0,0,0,0,0,0,0,0,0,0,0,0,0.924,0.924,0.924,0.924,0.923,0.921,0.92,0,0,0.919,0,0.917,0.917,0.917,0.917,0.917,0.917,0.916,0.915,0.914,0.914,0.914,0.912,0.911,0.911,0.911,0.91,0.909,0.909,0.908,0.907,0.907,0.906,0.905,0.905,0.905,0.904,0.903,0.903,0.903,0.903,0.903,0.904,0.905,0.906,0.908,0.908,0.909,0.91,0.911,0.912,0.913,0.914,0.916,0.917,0.92,0.922,0.924,0.925,0.927,0.928,0.93,0.931,0.932,0.933,0.934,0.936,0.937,0.938,0.937,0.938,0.937,0.937,0.937,0.937,0.937,0.938,0.94,0.942,0.944,0.946,0.949,0.952,0.955,0.958,0.961,0.964,0.966,0.969,0.971,0.974,0.976,0.977,0.979,0.981,0.982,0.985,0.987,0.988,0.989,0.991,0.993,0.994,0.996,0.997,0.999,1.002,1.005,1.006,1.007,1.009,1.01,1.011,1.012,1.012,1.013,1.014,1.017,1.018,1.019,1.02,1.021,1.022,1.023,1.024,1.024,1.025,1.025,1.025,1.025,1.025,1.026,1.026,1.026,1.026,1.027,1.028,1.029,1.03,1.032,1.032,1.033,1.035,1.036,1.037,1.038,1.04,1.041,1.044,1.044,1.046,1.049,1.051,1.053,1.056,1.057,1.059,1.062,1.063,1.065,1.066,1.067,1.068,1.069,1.07,1.071,1.072,1.073,1.074,1.074,1.075,1.076,1.077,1.078,1.079,1.08,1.081,1.083,1.084,1.086,1.089,1.09,1.092,1.094,1.097,1.101,1.104,1.107,1.109,1.113,1.116,1.119,1.122,1.124,1.127,1.13,1.132,1.134,1.138,1.141,1.145,1.148,1.152,1.156,1.159,1.163,1.165,1.169,1.173,1.175,1.175,1.176,1.176,1.178,1.178,1.179,1.179,1.18,1.181,1.183,1.183,1.184,1.185,1.185,1.185,1.185,1.187,1.188,1.188,1.19,1.19,1.19,1.192,1.192,1.192,1.192,1.192,1.192,1.192,1.192,1.192,1.192,1.193,1.193,1.193,1.193,1.193,1.194,1.195,1.197,1.198,1.202,1.203,1.207,1.211,1.215,1.22,1.223,1.227,1.233,1.237,1.242,1.245,1.248,1.251,1.255,1.256,1.259
3.986,3.972,3.972,0,0,0,0,0,0,0,0,0,0,0,0,0,0,0,0,0,0,0,0,0,0,0,0,0,0,0,0,0,0,0,0,0,0,0,0,0,0,0,0,0,0,0.708,0.708,0.708,0.708,0.708,0.708,0.707,0.706,0.705,0.704,0.703,0.701,0.699,0.697,0.694,0.693,0.691,0.688,0.686,0.683,0.681,0.679,0.676,0.674,0.672,0.671,0.67,0.669,0.668,0.669,0.668,0.669,0.67,0.67,0.67,0.671,0.671,0.672,0.672,0.672,0.672,0.672,0.672,0.671,0.671,0.671,0.67,0.67,0.67,0.669,0.669,0.668,0.668,0.668,0.667,0.667,0.667,0.666,0.666,0.666,0.667,0.667,0.667,0.668,0.669,0.67,0.67,0.672,0.673,0.674,0.676,0.677,0.679,0.683,0.69,0.699,0,0,0.721,0.728,0.732,0.732,0.732,0.731,0.731,0.729,0.727,0.725,0.722,0.72,0.719,0.717,0.715,0.714,0.713,0.712,0.711,0.71,0.708,0.706,0.704,0.702,0.7,0.698,0.695,0.693,0.692,0.69,0.688,0.687,0.686,0.685,0.685,0.684,0.684,0.682,0.682,0.68,0.679,0.678,0.677,0.675,0.674,0.673,0.672,0,0,0,0.667,0.666,0.665,0.665,0.664,0.664,0.664,0.664,0,0,0,0,0,0,0,0,0,0,0,0.715,0.715,0.715,0,0,0,0,0,0,0,0,0,0,0,0,0,0,0,0,0,0,0,0,0,0,0,0,0,0,0,0,0,0.82,0.821,0.823,0.822,0,0.819,0.817,0.815,0.814,0.812,0.812,0.812,0.811,0.811,0.809,0.808,0.808,0.807,0.807,0.806,0.805,0.804,0.803,0.802,0.802,0.802,0.801,0.801,0,0,0.801,0.801,0,0,0,0,0,0,0,0,0,0,0,0.925,0.924,0.924,0.924,0.924,0.924,0.924,0.922,0,0,0,0,0,0.917,0.917,0,0.917,0.917,0.917,0.917,0.917,0.916,0.915,0.915,0.914,0.913,0.912,0.912,0.911,0.91,0.91,0.909,0.908,0.907,0.906,0.906,0.905,0.905,0.904,0.903,0.903,0.903,0.903,0.903,0.904,0.905,0.905,0.907,0.908,0.909,0.91,0.911,0.911,0.913,0.914,0.915,0.917,0.918,0.92,0.923,0.924,0.926,0.927,0.929,0.93,0.931,0.932,0.933,0.934,0.936,0.937,0.937,0.937,0.937,0.937,0.937,0.936,0.936,0.937,0.938,0.94,0.942,0.944,0.945,0.947,0.95,0.954,0.956,0.959,0.961,0.965,0.967,0.97,0.972,0.975,0.976,0.978,0.98,0.982,0.983,0.985,0.987,0.989,0.99,0.992,0.993,0.995,0.996,0.998,1,1.002,1.004,1.006,1.007,1.009,1.011,1.012,1.012,1.013,1.015,1.016,1.018,1.019,1.02,1.021,1.022,1.023,1.024,1.025,1.025,1.026,1.026,1.026,1.026,1.026,1.027,1.027,1.027,1.028,1.029,1.03,1.031,1.032,1.034,1.035,1.035,1.036,1.037,1.038,1.04,1.042,1.043,1.045,1.047,1.049,1.052,1.054,1.056,1.058,1.06,1.063,1.064,1.065,1.066,1.067,1.068,1.069,1.07,1.071,1.072,1.073,1.074,1.075,1.075,1.076,1.077,1.078,1.078,1.08,1.081,1.082,1.083,1.085,1.088,1.089,1.091,1.093,1.095,1.098,1.102,1.106,1.108,1.112,1.115,1.118,1.122,1.125,1.129,1.131,1.132,1.135,1.139,1.141,1.145,1.148,1.152,1.156,1.159,1.162,1.165,1.169,1.171,1.174,1.176,1.176,1.178,1.179,1.18,1.18,1.18,1.181,1.183,1.184,1.184,1.185,1.187,1.187,1.187,1.187,1.187,1.188,1.189,1.19,1.19,1.19,1.192,1.192,1.192,1.192,1.192,1.19,1.19,1.192,1.192,1.192,1.192,1.192,1.192,1.192,1.193,1.193,1.195,1.195,1.198,1.201,1.203,1.206,1.211,1.215,1.219,1.223,1.229,1.233,1.237,1.241,1.245,1.249,1.252,1.256,1.258,1.261
0,0,0,0,0,0,0,0,0,0,0,0,0,0,0,0,0,0,0,0,0,0,0,0,0,0,0,0,0,0,0,0,0,0,0,0,0,0,0,0,0,0,0,0,0,0.71,0.71,0.71,0.71,0.71,0.709,0.709,0.708,0.706,0.705,0.704,0.701,0.699,0.697,0.694,0.693,0.69,0.688,0.685,0.683,0.68,0.678,0.676,0.675,0.673,0.672,0.67,0.67,0.67,0.67,0.67,0.67,0.67,0.671,0.671,0.672,0.672,0.672,0.672,0.672,0.672,0.672,0.672,0.672,0.671,0.671,0.671,0.67,0.67,0.67,0.669,0.669,0.668,0.668,0.668,0.668,0.668,0.668,0.668,0.668,0.668,0.668,0.669,0.669,0.67,0.671,0.672,0.673,0.674,0.675,0.677,0.678,0.681,0.685,0.693,0.701,0,0.715,0.721,0.728,0,0.732,0.732,0.731,0.731,0.729,0.727,0.724,0.722,0.721,0.718,0.717,0.715,0.714,0.712,0.711,0.71,0.709,0.707,0.705,0.703,0.701,0.699,0.697,0.695,0.693,0.691,0.689,0.688,0.687,0.687,0.686,0.685,0.684,0.683,0.683,0.682,0.68,0.679,0.678,0.677,0.676,0.675,0.674,0.672,0.671,0,0,0.668,0.666,0.665,0.666,0.665,0.665,0.665,0.665,0.664,0,0,0,0,0,0,0,0,0.715,0.715,0.715,0.716,0.716,0.715,0.715,0.715,0.715,0,0,0,0,0,0,0,0,0,0,0,0,0,0,0,0,0,0,0,0,0,0.716,0.715,0.715,0,0,0,0,0,0,0.821,0.818,0.816,0.814,0.814,0.813,0.812,0.812,0.811,0.81,0.808,0.808,0.806,0.806,0.805,0.804,0.804,0.802,0.802,0.801,0.801,0.801,0.8,0.8,0.8,0.8,0.801,0.803,0,0,0,0,0,0,0,0,0,0,0.916,0.921,0.92,0.92,0.92,0.924,0.923,0,0,0,0,0,0,0.918,0.917,0.917,0.917,0.918,0.918,0.918,0.917,0.917,0.916,0.916,0.914,0.914,0.913,0.912,0.911,0.911,0.91,0.909,0.908,0.908,0.907,0.907,0.906,0.905,0.905,0.904,0.904,0.904,0.904,0.904,0.905,0.905,0.906,0.907,0.908,0.909,0.91,0.911,0.912,0.913,0.914,0.916,0.917,0.919,0.92,0.923,0.925,0.927,0.928,0.929,0.93,0.931,0.932,0.933,0.934,0.935,0.936,0.936,0.936,0.936,0.936,0.936,0.935,0.935,0.936,0.938,0.939,0.942,0.942,0.944,0.946,0.949,0.952,0.955,0.957,0.96,0.963,0.965,0.97,0.971,0.974,0.976,0.977,0.979,0.981,0.982,0.983,0.986,0.988,0.989,0.991,0.992,0.993,0.995,0.997,0.999,1,1.002,1.004,1.006,1.008,1.01,1.011,1.012,1.013,1.015,1.016,1.018,1.019,1.02,1.021,1.022,1.024,1.024,1.026,1.026,1.027,1.027,1.027,1.027,1.027,1.027,1.028,1.028,1.029,1.03,1.031,1.032,1.033,1.035,1.035,1.037,1.038,1.038,1.039,1.041,1.043,1.044,1.046,1.048,1.05,1.053,1.055,1.057,1.059,1.062,1.064,1.064,1.065,1.066,1.067,1.068,1.069,1.07,1.071,1.072,1.073,1.075,1.076,1.077,1.078,1.078,1.079,1.08,1.08,1.081,1.082,1.083,1.086,1.086,1.089,1.09,1.092,1.095,1.097,1.102,1.104,1.107,1.11,1.114,1.118,1.122,1.125,1.129,1.131,1.133,1.137,1.139,1.142,1.146,1.148,1.152,1.156,1.159,1.162,1.165,1.169,1.171,1.175,1.176,1.178,1.179,1.18,1.18,1.181,1.181,1.183,1.183,1.184,1.185,1.187,1.187,1.187,1.188,1.189,1.189,1.19,1.19,1.19,1.192,1.192,1.192,1.193,1.192,1.192,1.192,1.192,1.192,1.192,1.192,1.192,1.192,1.192,1.192,1.192,1.193,1.194,1.195,1.195,1.198,1.201,1.203,1.206,1.21,1.214,1.218,1.222,1.227,1.233,1.237,1.241,1.245,1.249,1.252,1.256,1.259,1.262
0,0,0,0,0,0,0,0,0,0,0,0,0,0,0,0,0,0,0,0,0,0,0,0,0,0,0,0,0,0,0,0,0,0,0,0,0,0,0,0,0,0,0,0,0,0,0,0.713,0.712,0.712,0.712,0.711,0.709,0.708,0.706,0.704,0.702,0.7,0.697,0.694,0.692,0.69,0.687,0.685,0.682,0.68,0.678,0.676,0.675,0.673,0.672,0.671,0.671,0.671,0.671,0.671,0.671,0.671,0.672,0.672,0.672,0.672,0.672,0.672,0.672,0.672,0.672,0.672,0.672,0.672,0.672,0.671,0.671,0.671,0.67,0.67,0.67,0.67,0.669,0.669,0.669,0.669,0.669,0.669,0.669,0.67,0.67,0.67,0.671,0.672,0.672,0.673,0.675,0.675,0.676,0.677,0.679,0.682,0.687,0.694,0,0,0.716,0.722,0.729,0.732,0.733,0.732,0.732,0.731,0.73,0.727,0.725,0.723,0.721,0.719,0.717,0.715,0.714,0.712,0.711,0.709,0.708,0.706,0.705,0.702,0.7,0.698,0.696,0.694,0.693,0.691,0.69,0.689,0.688,0.687,0.686,0.685,0.685,0.684,0.682,0.682,0.681,0.679,0.678,0.677,0.676,0.675,0.675,0.673,0.672,0.67,0,0.668,0.666,0.665,0.665,0.664,0.664,0.664,0.664,0.664,0,0,0,0,0,0,0,0,0.714,0.715,0.715,0,0,0,0.715,0.715,0.715,0,0,0,0,0,0,0,0,0,0,0,0,0,0,0,0,0,0,0,0,0,0.718,0.718,0.717,0.716,0.715,0,0,0,0,0,0.82,0.817,0.815,0.814,0.814,0.812,0.812,0.811,0.81,0.809,0.807,0.807,0.805,0.804,0.803,0.802,0.801,0.801,0.801,0.8,0.8,0.799,0.8,0.8,0.8,0.801,0.802,0.804,0,0,0,0,0,0,0,0,0,0,0,0.916,0.91,0.915,0.917,0.92,0.919,0,0,0.915,0.916,0.917,0.917,0.917,0.917,0.918,0.918,0.919,0.918,0.918,0.917,0.917,0.916,0.916,0.914,0.914,0.913,0.912,0.911,0.91,0.909,0.908,0.907,0.907,0.906,0.905,0.905,0.905,0.905,0.905,0.905,0.905,0.905,0.905,0.905,0.906,0.908,0.909,0.91,0.911,0.911,0.912,0.914,0.915,0.917,0.918,0.92,0.921,0.924,0.925,0.927,0.928,0.93,0.931,0.932,0.932,0.934,0.934,0.936,0.936,0.936,0.936,0.935,0.936,0.935,0.935,0.934,0.935,0.937,0.938,0.94,0.942,0.943,0.946,0.948,0.95,0.954,0.955,0.959,0.962,0.965,0.968,0.97,0.972,0.974,0.976,0.977,0.979,0.981,0.982,0.984,0.986,0.988,0.99,0.99,0.992,0.994,0.996,0.997,0.999,1,1.002,1.005,1.007,1.009,1.011,1.012,1.013,1.015,1.016,1.018,1.019,1.02,1.021,1.022,1.024,1.025,1.026,1.027,1.027,1.028,1.027,1.027,1.027,1.029,1.029,1.029,1.03,1.031,1.032,1.034,1.035,1.036,1.037,1.038,1.039,1.04,1.041,1.042,1.044,1.045,1.047,1.049,1.052,1.054,1.056,1.058,1.06,1.063,1.064,1.065,1.066,1.067,1.068,1.069,1.07,1.071,1.072,1.073,1.075,1.076,1.077,1.078,1.079,1.079,1.079,1.08,1.081,1.081,1.082,1.083,1.086,1.088,1.089,1.091,1.092,1.095,1.097,1.101,1.103,1.106,1.109,1.113,1.117,1.121,1.125,1.129,1.131,1.134,1.137,1.14,1.142,1.146,1.148,1.152,1.156,1.159,1.163,1.165,1.169,1.171,1.174,1.176,1.179,1.18,1.18,1.181,1.183,1.183,1.184,1.184,1.185,1.187,1.188,1.188,1.189,1.189,1.189,1.19,1.19,1.192,1.193,1.193,1.194,1.194,1.194,1.194,1.194,1.193,1.193,1.193,1.193,1.193,1.193,1.193,1.193,1.193,1.193,1.194,1.195,1.195,1.197,1.198,1.201,1.203,1.206,1.21,1.214,1.216,1.222,1.225,1.23,1.234,1.238,1.242,1.247,1.252,1.256,1.259,1.264
0,0,0,0,0,0,0,0,0,0,0,0,0,0,0,0,0,0,0,0,0,0,0,0,0,0,0,0,0,0,0,0,0,0,0,0,0,0,0,0,0,0,0,0,0,0,0,0.715,0.715,0.715,0.713,0.712,0.71,0.709,0.707,0.705,0.702,0.7,0.697,0.694,0.692,0.689,0.686,0.683,0.681,0.679,0.677,0.675,0.674,0.673,0.672,0.672,0.672,0.671,0.671,0.671,0.671,0.671,0.671,0.672,0.671,0.672,0.672,0.672,0.672,0.672,0.672,0.672,0.672,0.672,0.672,0.672,0.672,0.672,0.671,0.671,0.671,0.671,0.67,0.67,0.67,0.67,0.67,0.67,0.671,0.671,0.672,0.672,0.672,0.673,0.674,0.675,0.675,0.676,0.677,0.678,0.679,0.684,0.689,0.697,0,0.711,0.718,0.725,0.731,0.733,0.733,0.733,0.732,0.731,0.731,0.728,0.726,0.724,0.722,0.72,0.718,0.716,0.714,0.712,0.71,0.709,0.707,0.706,0.704,0.702,0.7,0.698,0.696,0.695,0.693,0.692,0.691,0.69,0.689,0.688,0.687,0.686,0.685,0.684,0.683,0.682,0.681,0.679,0.679,0.677,0.677,0.676,0.675,0.674,0.672,0.67,0.669,0.667,0,0,0.664,0.664,0.664,0.664,0.664,0.664,0,0,0.671,0,0,0.695,0,0.71,0,0.713,0.716,0.715,0.715,0.715,0.715,0.715,0.715,0.716,0.716,0.717,0,0,0,0,0,0.721,0,0,0,0,0,0,0,0,0,0,0.721,0.721,0.72,0.72,0.719,0.718,0.718,0.717,0,0,0,0,0,0,0.816,0,0,0.814,0.813,0.812,0.81,0,0,0,0.805,0.803,0.802,0.801,0.801,0.8,0.8,0.799,0.799,0.798,0.799,0.798,0.8,0.8,0,0.803,0,0,0,0,0,0,0,0,0,0,0,0,0,0,0,0,0,0,0,0,0.914,0.916,0.918,0.917,0.918,0.917,0.918,0.919,0.92,0.92,0,0.918,0.917,0.916,0.915,0.914,0.914,0.912,0.911,0.911,0.909,0.908,0.907,0.907,0.906,0.905,0.905,0.905,0.905,0.905,0.905,0.905,0.905,0.905,0.905,0.907,0.908,0.909,0.91,0.911,0.911,0.913,0.914,0.916,0.917,0.919,0.92,0.922,0.924,0.925,0.927,0.929,0.93,0.932,0.933,0.934,0.934,0.935,0.936,0.936,0.936,0.936,0.935,0.935,0.935,0.935,0.935,0.935,0.936,0.938,0.939,0.941,0.942,0.945,0.947,0.95,0.953,0.955,0.958,0.96,0.964,0.966,0.969,0.971,0.973,0.975,0.976,0.978,0.98,0.981,0.982,0.984,0.987,0.989,0.989,0.991,0.993,0.995,0.997,0.998,0.999,1.001,1.004,1.007,1.008,1.01,1.011,1.013,1.014,1.016,1.017,1.019,1.02,1.021,1.023,1.025,1.026,1.027,1.027,1.028,1.029,1.028,1.028,1.028,1.029,1.029,1.03,1.031,1.032,1.033,1.035,1.036,1.038,1.039,1.039,1.041,1.042,1.043,1.044,1.045,1.046,1.048,1.05,1.053,1.055,1.057,1.059,1.062,1.064,1.066,1.066,1.067,1.068,1.069,1.07,1.071,1.071,1.073,1.074,1.075,1.077,1.078,1.079,1.08,1.08,1.08,1.081,1.081,1.081,1.082,1.083,1.086,1.086,1.09,1.092,1.093,1.095,1.097,1.101,1.103,1.106,1.109,1.113,1.116,1.121,1.124,1.127,1.131,1.134,1.138,1.14,1.144,1.146,1.15,1.152,1.156,1.159,1.163,1.167,1.169,1.171,1.175,1.178,1.179,1.18,1.183,1.184,1.184,1.184,1.185,1.187,1.187,1.188,1.189,1.189,1.19,1.19,1.192,1.192,1.193,1.193,1.194,1.194,1.194,1.194,1.194,1.194,1.194,1.194,1.194,1.194,1.194,1.194,1.194,1.194,1.194,1.194,1.194,1.194,1.195,1.197,1.198,1.199,1.202,1.203,1.206,1.21,1.214,1.216,1.219,1.223,1.227,1.233,1.235,1.24,1.245,1.249,1.254,1.258,1.262
3.944,0,0,0,0,0,0,0,0,0,0,0,0,0,0,0,0,0,0,0,0,0,0,0,0,0,0,0,0,0,0,0,0,0,0,0,0,0,0,0,0,0,0,0,0,0,0,0.718,0.717,0.716,0.715,0.714,0.712,0.709,0.708,0.705,0.703,0.7,0.697,0.693,0.69,0.688,0.685,0.682,0.679,0.677,0.675,0.674,0.673,0.672,0.672,0.671,0.671,0.671,0.671,0.671,0.671,0.671,0.671,0.671,0.671,0.672,0.672,0.672,0.672,0.672,0.672,0.673,0.673,0.673,0.673,0.673,0.672,0.672,0.672,0.672,0.672,0.672,0.672,0.672,0.672,0.672,0.672,0.672,0.672,0.672,0.673,0.673,0.674,0.675,0.675,0.675,0.676,0.677,0.678,0.679,0.679,0.685,0.691,0.699,0,0.715,0.721,0.727,0.732,0.734,0.734,0.733,0.733,0.732,0.731,0.729,0.727,0.725,0.723,0.721,0.719,0.716,0.714,0.712,0.71,0.709,0.708,0.706,0.704,0.702,0.7,0.698,0.697,0.695,0.693,0.692,0.691,0.69,0.689,0.688,0.687,0.686,0.685,0.684,0.683,0.682,0.681,0.68,0.679,0.679,0.678,0.677,0.676,0.675,0,0.671,0.669,0.668,0.666,0,0.664,0.664,0.663,0,0.663,0.663,0,0,0.668,0,0,0,0.698,0.707,0,0,0.715,0.715,0.715,0.715,0.715,0.715,0.716,0.716,0.717,0.718,0,0,0,0,0.721,0.722,0.723,0.724,0.724,0.724,0.725,0.726,0.726,0.726,0.725,0.724,0.723,0.722,0.722,0.721,0.721,0.721,0.719,0.719,0.719,0,0.721,0,0,0,0,0,0,0,0.814,0.812,0.81,0,0,0.804,0.803,0.802,0.801,0.801,0.8,0.799,0.799,0.798,0.798,0.798,0.798,0.799,0.8,0.801,0.803,0,0,0,0,0,0,0,0,0,0,0,0,0,0,0,0,0,0,0,0,0,0.914,0.917,0.919,0.92,0.92,0.92,0.92,0.921,0.922,0.921,0.92,0.92,0.918,0.917,0.916,0.916,0.914,0.913,0.911,0.911,0.909,0.908,0.908,0.907,0.906,0.905,0.905,0.905,0.905,0.905,0.905,0.905,0.905,0.906,0.906,0.907,0.908,0.909,0.911,0.911,0.913,0.914,0.915,0.917,0.918,0.92,0.921,0.923,0.924,0.926,0.927,0.929,0.931,0.933,0.933,0.934,0.935,0.936,0.936,0.937,0.936,0.936,0.936,0.936,0.936,0.936,0.935,0.935,0.936,0.938,0.938,0.939,0.941,0.942,0.945,0.948,0.951,0.952,0.955,0.959,0.962,0.965,0.967,0.97,0.971,0.974,0.976,0.976,0.978,0.979,0.981,0.983,0.985,0.987,0.989,0.989,0.992,0.994,0.996,0.997,0.998,1,1.003,1.006,1.007,1.009,1.011,1.012,1.014,1.015,1.017,1.018,1.02,1.021,1.023,1.025,1.026,1.028,1.029,1.03,1.03,1.029,1.029,1.028,1.03,1.03,1.03,1.031,1.032,1.033,1.035,1.036,1.038,1.04,1.04,1.042,1.043,1.044,1.045,1.046,1.047,1.049,1.051,1.053,1.055,1.057,1.059,1.062,1.064,1.066,1.067,1.068,1.069,1.07,1.07,1.072,1.072,1.073,1.074,1.076,1.077,1.079,1.079,1.08,1.08,1.08,1.081,1.081,1.081,1.082,1.083,1.085,1.088,1.09,1.092,1.094,1.096,1.098,1.101,1.104,1.107,1.109,1.113,1.116,1.121,1.124,1.127,1.131,1.134,1.137,1.14,1.142,1.146,1.148,1.152,1.156,1.159,1.163,1.167,1.169,1.173,1.176,1.178,1.18,1.181,1.183,1.185,1.187,1.185,1.187,1.188,1.189,1.189,1.19,1.19,1.192,1.192,1.193,1.193,1.194,1.194,1.194,1.195,1.195,1.195,1.195,1.195,1.195,1.194,1.194,1.194,1.194,1.194,1.194,1.194,1.194,1.194,1.195,1.195,1.197,1.197,1.198,1.199,1.202,1.205,1.206,1.209,1.212,1.215,1.218,1.222,1.225,1.229,1.233,1.237,1.241,1.247,1.251,1.255,1.261
3.944,0,0,0,0,0,0,0,0,0,0,0,0,0,0,0,0,0,0,0,0,0,0,0,0,0,0,0,0,0,0,0,0,0,0,0,0,0,0,0,0,0,0,0,0,0,0,0.721,0.719,0.718,0.716,0.715,0.713,0.711,0.709,0.706,0.703,0.7,0.697,0.693,0.69,0.687,0.684,0.68,0.677,0.675,0.673,0.672,0.671,0.671,0.671,0.67,0.67,0.67,0.67,0.671,0.671,0.671,0.671,0.671,0.671,0.672,0.672,0.672,0.672,0.673,0.673,0.673,0.673,0.673,0.674,0.674,0.673,0.673,0.672,0.672,0.672,0.672,0.672,0.673,0.673,0.673,0.673,0.674,0.674,0.674,0.675,0.675,0.675,0.675,0.676,0.676,0.677,0.677,0.678,0.679,0.679,0.685,0.692,0.7,0,0.716,0.723,0.729,0.733,0.734,0.734,0.734,0.733,0.733,0.731,0.73,0.728,0.726,0.723,0.721,0.719,0.717,0.714,0.713,0.711,0.709,0.708,0.706,0.705,0.703,0.701,0.699,0.697,0.696,0.694,0.693,0.691,0.69,0.689,0.688,0.687,0.686,0.685,0.684,0.683,0.682,0.682,0.681,0.68,0.679,0.678,0.677,0.677,0.675,0.674,0.672,0.67,0.668,0.667,0.665,0.664,0.664,0.664,0,0.664,0,0,0,0.669,0,0,0.689,0,0.705,0,0,0,0.715,0.715,0.715,0.715,0.716,0.716,0.717,0.718,0.719,0.719,0,0.721,0.722,0.723,0.724,0.724,0.725,0.726,0.726,0.727,0.727,0.728,0.728,0.727,0.726,0.725,0.724,0.723,0.723,0.723,0.722,0.721,0.721,0.721,0.721,0.722,0.723,0.723,0,0,0,0,0,0,0,0,0,0,0,0,0,0.8,0.799,0.799,0.798,0.798,0.798,0.797,0.797,0.798,0.8,0.8,0.801,0.804,0.807,0.81,0.814,0.818,0.823,0.825,0,0.825,0.829,0.838,0.849,0,0,0,0,0,0,0,0,0,0,0,0.918,0.921,0.921,0.921,0.922,0.922,0.924,0.924,0,0,0.921,0.92,0.919,0.918,0.917,0.915,0.914,0.912,0.911,0.91,0.909,0.908,0.908,0.907,0.906,0.905,0.905,0.905,0.905,0.905,0.905,0.905,0.906,0.906,0.906,0.908,0.909,0.91,0.911,0.913,0.914,0.916,0.917,0.919,0.92,0.922,0.924,0.924,0.926,0.927,0.929,0.931,0.933,0.933,0.934,0.935,0.936,0.936,0.936,0.936,0.936,0.936,0.936,0.936,0.936,0.935,0.935,0.936,0.938,0.938,0.939,0.94,0.942,0.944,0.947,0.949,0.951,0.954,0.957,0.959,0.963,0.965,0.968,0.97,0.972,0.974,0.975,0.976,0.977,0.979,0.982,0.983,0.985,0.987,0.989,0.991,0.993,0.995,0.997,0.997,0.999,1.002,1.005,1.007,1.009,1.01,1.012,1.014,1.015,1.017,1.018,1.02,1.021,1.023,1.026,1.027,1.029,1.03,1.031,1.032,1.031,1.03,1.029,1.03,1.03,1.031,1.032,1.033,1.034,1.036,1.037,1.039,1.041,1.041,1.043,1.044,1.045,1.046,1.048,1.049,1.05,1.052,1.054,1.056,1.057,1.06,1.063,1.065,1.066,1.068,1.069,1.07,1.07,1.071,1.072,1.073,1.074,1.075,1.076,1.077,1.079,1.08,1.08,1.08,1.08,1.081,1.081,1.081,1.082,1.083,1.086,1.088,1.091,1.093,1.095,1.097,1.098,1.102,1.104,1.107,1.11,1.113,1.116,1.121,1.124,1.127,1.131,1.134,1.137,1.139,1.142,1.146,1.148,1.152,1.154,1.159,1.163,1.167,1.17,1.173,1.176,1.179,1.18,1.183,1.184,1.185,1.188,1.188,1.189,1.189,1.19,1.192,1.193,1.193,1.193,1.194,1.195,1.195,1.195,1.195,1.195,1.197,1.197,1.197,1.197,1.195,1.195,1.195,1.194,1.194,1.194,1.194,1.194,1.194,1.194,1.194,1.195,1.195,1.197,1.197,1.199,1.201,1.202,1.205,1.207,1.21,1.212,1.215,1.216,1.219,1.222,1.225,1.229,1.233,1.235,1.241,1.247,1.251,1.256
0,0,0,0,0,0,0,0,0,0,0,0,0,0,0,0,0,0,0,0,0,0,0,0,0,0,0,0,0,0,0,0,0,0,0,0,0,0,0,0,0,0,0,0,0,0,0.724,0.722,0.721,0.719,0.718,0.716,0.714,0.711,0.709,0.706,0.703,0.7,0.696,0.692,0.688,0.685,0.682,0.678,0.675,0.673,0.672,0.671,0.67,0.669,0.669,0.669,0.669,0.669,0.67,0.67,0.67,0.67,0.671,0.671,0.672,0.672,0.672,0.673,0.673,0.673,0.674,0.674,0.674,0.674,0.674,0.674,0.674,0.674,0.674,0.674,0.674,0.674,0.674,0.674,0.674,0.675,0.675,0.675,0.675,0.675,0.675,0.675,0.676,0.676,0.676,0.676,0.677,0.677,0.678,0.679,0.679,0.686,0.694,0.702,0,0.72,0.726,0.731,0.734,0.734,0.734,0.734,0.733,0.732,0.732,0.73,0.728,0.726,0.724,0.722,0.72,0.718,0.715,0.713,0.711,0.71,0.709,0.707,0.705,0.704,0.702,0.7,0.698,0.697,0.695,0.693,0.692,0.69,0.689,0.688,0.687,0.686,0.685,0.685,0.684,0.683,0.682,0.682,0.681,0.68,0.679,0.678,0.677,0.675,0.674,0,0,0.669,0.668,0.666,0.666,0.666,0.665,0.665,0.665,0.666,0,0,0.671,0,0.675,0.685,0,0.702,0.706,0,0.715,0.716,0.715,0.715,0.715,0.716,0.717,0.718,0.719,0.72,0.721,0.721,0.722,0.723,0.724,0.725,0.726,0.727,0.727,0.728,0.729,0.729,0.73,0.73,0.729,0.728,0.728,0.727,0.726,0.725,0.725,0.724,0.723,0.723,0.723,0.723,0.723,0.723,0.724,0.725,0,0,0,0,0,0,0,0,0,0,0,0.798,0.796,0.796,0.798,0.797,0.797,0.797,0.797,0.797,0.798,0.8,0.8,0.802,0.805,0.808,0,0,0,0,0,0,0,0.826,0.829,0,0.838,0,0,0,0.868,0,0.889,0.902,0,0,0,0,0,0,0.923,0.924,0.924,0,0,0,0,0.924,0.922,0.92,0.92,0.918,0.917,0.915,0.914,0.912,0.911,0.91,0.909,0.908,0.908,0.907,0.906,0.905,0.905,0.905,0.905,0.905,0.905,0.905,0.906,0.907,0.908,0.908,0.91,0.911,0.913,0.914,0.917,0.918,0.92,0.921,0.922,0.924,0.924,0.926,0.927,0.929,0.93,0.932,0.933,0.934,0.935,0.936,0.937,0.937,0.936,0.936,0.937,0.937,0.937,0.937,0.936,0.936,0.937,0.938,0.938,0.938,0.938,0.94,0.942,0.945,0.947,0.95,0.951,0.955,0.958,0.96,0.962,0.965,0.967,0.969,0.971,0.973,0.974,0.975,0.977,0.98,0.982,0.983,0.985,0.988,0.989,0.992,0.994,0.996,0.997,0.999,1.002,1.005,1.007,1.008,1.01,1.012,1.013,1.016,1.017,1.019,1.02,1.022,1.025,1.027,1.028,1.031,1.032,1.033,1.033,1.032,1.032,1.031,1.031,1.032,1.032,1.033,1.034,1.035,1.036,1.038,1.04,1.041,1.042,1.044,1.045,1.046,1.048,1.049,1.05,1.052,1.054,1.055,1.057,1.058,1.062,1.064,1.066,1.067,1.068,1.069,1.07,1.071,1.072,1.072,1.073,1.074,1.075,1.076,1.077,1.078,1.079,1.079,1.08,1.079,1.08,1.08,1.081,1.082,1.084,1.086,1.089,1.091,1.093,1.095,1.097,1.099,1.102,1.104,1.106,1.109,1.114,1.116,1.119,1.123,1.127,1.131,1.133,1.137,1.139,1.142,1.145,1.148,1.152,1.156,1.159,1.164,1.168,1.17,1.173,1.175,1.179,1.18,1.183,1.185,1.187,1.188,1.189,1.19,1.192,1.193,1.193,1.194,1.194,1.195,1.195,1.195,1.197,1.197,1.197,1.197,1.198,1.198,1.198,1.197,1.195,1.195,1.195,1.194,1.194,1.194,1.194,1.193,1.193,1.194,1.194,1.194,1.195,1.195,1.197,1.199,1.201,1.203,1.205,1.207,1.209,1.212,1.214,1.215,1.218,1.219,1.222,1.225,1.226,1.23,1.234,1.238,0,0
0,0,0,0,0,0,0,0,0,0,0,0,0,0,0,0,0,0,0,0,0,0,0,0,0,0,0,0,0,0,0,0,0,0,0,0,0,0,0,0,0,0,0,0,0.73,0.727,0.726,0.724,0.722,0.72,0.719,0.716,0.715,0.712,0.71,0.707,0.703,0.701,0.697,0.692,0.688,0.685,0.681,0.677,0.675,0.672,0.67,0.669,0.668,0.668,0.668,0.668,0.668,0.668,0.668,0.67,0.67,0.67,0.67,0.671,0.672,0.672,0.673,0.673,0.674,0.674,0.674,0.674,0.675,0.675,0.675,0.675,0.675,0.675,0.675,0.675,0.675,0.675,0.675,0.676,0.676,0.676,0.676,0.676,0.676,0.676,0.676,0.676,0.676,0.676,0.677,0.677,0.677,0.677,0.678,0.679,0.681,0.688,0.696,0.705,0,0.723,0.729,0.732,0.734,0.734,0.734,0.734,0.733,0.732,0.732,0.73,0.729,0.727,0.725,0.723,0.721,0.719,0.716,0.714,0.712,0.711,0.709,0.708,0.706,0.705,0.703,0.701,0.699,0.697,0.695,0.693,0.692,0.69,0.689,0.688,0.687,0.686,0.685,0.685,0.685,0.684,0.683,0.683,0.682,0.681,0.68,0.679,0.677,0.676,0.675,0,0,0.67,0.668,0.667,0.666,0.666,0.666,0.667,0.668,0.668,0.668,0.671,0.674,0.679,0.682,0.685,0,0,0,0.708,0.713,0.715,0.715,0.715,0.716,0.716,0.717,0.718,0.719,0.721,0.721,0.722,0.724,0.724,0.726,0.726,0.727,0.728,0.729,0.73,0.73,0.731,0.731,0.731,0.731,0.731,0.73,0.73,0.729,0.729,0.728,0.727,0.726,0.726,0.725,0.725,0.724,0.725,0.725,0.726,0.726,0.727,0.727,0.728,0,0.728,0,0,0,0,0,0,0,0,0,0.796,0.796,0.796,0.797,0.797,0.798,0.8,0.8,0.803,0.805,0.809,0,0,0,0,0,0,0.824,0.824,0.825,0.825,0.828,0.833,0,0,0.849,0,0.862,0.871,0,0,0,0.906,0.914,0.917,0.92,0.924,0.926,0.926,0.927,0,0,0.924,0.923,0.922,0.92,0.919,0.917,0.916,0.914,0.912,0.911,0.911,0.91,0.909,0.908,0.908,0.907,0.906,0.906,0.905,0.905,0.905,0.905,0.905,0.906,0.907,0.908,0.909,0.911,0.912,0.913,0.914,0.916,0.918,0.92,0.92,0.922,0.923,0.924,0.926,0.927,0.929,0.93,0.932,0.933,0.934,0.934,0.936,0.936,0.936,0.936,0.936,0.936,0.937,0.937,0.936,0.936,0.936,0.937,0.937,0.938,0.938,0.938,0.94,0.942,0.944,0.946,0.948,0.95,0.953,0.955,0.958,0.959,0.962,0.965,0.966,0.969,0.97,0.972,0.973,0.976,0.978,0.98,0.982,0.983,0.986,0.989,0.99,0.993,0.995,0.997,0.998,1.001,1.004,1.006,1.007,1.009,1.012,1.014,1.016,1.018,1.019,1.02,1.023,1.026,1.028,1.029,1.031,1.033,1.034,1.035,1.034,1.034,1.033,1.033,1.034,1.034,1.035,1.035,1.036,1.038,1.039,1.041,1.042,1.043,1.044,1.046,1.047,1.049,1.05,1.051,1.052,1.054,1.056,1.057,1.059,1.06,1.063,1.066,1.067,1.069,1.07,1.071,1.071,1.072,1.073,1.074,1.075,1.075,1.076,1.077,1.078,1.078,1.079,1.079,1.079,1.079,1.08,1.081,1.083,1.084,1.088,1.09,1.092,1.094,1.096,1.098,1.102,1.103,1.105,1.107,1.109,1.114,1.116,1.119,1.123,1.126,1.13,1.133,1.135,1.138,1.141,1.145,1.148,1.152,1.157,1.16,1.164,1.168,1.171,1.174,1.176,1.179,1.18,1.183,1.185,1.187,1.189,1.19,1.192,1.193,1.194,1.194,1.195,1.195,1.197,1.197,1.198,1.198,1.198,1.198,1.198,1.198,1.198,1.198,1.198,1.197,1.195,1.195,1.194,1.194,1.194,1.193,1.193,1.193,1.194,1.194,1.194,1.195,1.197,1.197,1.199,1.202,1.203,1.206,1.207,1.21,1.212,1.214,1.215,1.216,1.218,1.219,1.222,1.223,1.226,1.229,1.231,0,0
0,0,0,0,0,0,0,0,0,0,0,0,0,0,0,0,0,0,0,0,0,0,0,0,0,0,0,0,0,0,0,0,0,0,0,0,0,0,0,0,0,0,0.734,0.732,0.73,0.729,0.727,0.724,0.723,0.721,0.719,0.718,0.715,0.713,0.71,0.708,0.704,0.701,0.697,0.692,0.687,0.683,0.679,0.675,0.672,0.67,0.669,0.668,0.667,0.666,0.666,0.666,0.667,0.667,0.668,0.668,0.669,0.67,0.67,0.671,0.672,0.672,0.673,0.674,0.674,0.674,0.675,0.675,0.675,0.675,0.675,0.675,0.675,0.675,0.675,0.675,0.676,0.676,0.676,0.677,0.677,0.677,0.677,0.677,0.677,0.676,0.676,0.676,0.676,0.676,0.677,0.677,0.677,0.678,0.679,0.68,0.683,0.69,0.699,0,0,0.725,0.731,0.734,0.735,0.735,0.735,0.734,0.734,0.733,0.732,0.731,0.729,0.728,0.726,0.724,0.722,0.72,0.717,0.715,0.714,0.712,0.71,0.709,0.707,0.706,0.704,0.702,0.7,0.698,0.696,0.694,0.692,0.691,0.689,0.688,0.687,0.687,0.686,0.685,0.685,0.685,0.684,0.684,0.683,0.682,0.681,0.679,0.678,0,0.676,0.675,0.672,0.671,0.67,0.669,0.669,0.669,0.67,0.67,0.67,0.672,0.672,0.673,0.676,0.679,0.682,0.685,0,0,0.7,0.705,0.711,0.714,0.715,0.715,0.716,0.717,0.718,0.72,0.72,0.722,0.723,0.724,0.726,0.726,0.727,0.729,0.729,0.73,0.731,0.731,0.731,0.732,0.733,0.733,0.733,0.733,0.733,0.732,0.732,0.732,0.731,0.73,0.729,0.728,0.728,0.727,0.726,0.726,0.726,0.727,0.727,0.727,0.727,0.728,0.728,0.729,0.729,0.729,0.729,0,0,0,0,0,0,0,0,0,0,0.797,0,0,0.802,0.805,0.808,0.81,0,0.816,0.819,0.822,0.823,0.823,0.823,0.823,0.823,0.824,0.826,0.829,0.834,0,0,0,0.852,0.857,0,0.865,0.878,0,0.902,0.911,0.92,0.922,0.925,0.927,0.927,0.927,0.925,0.925,0.924,0.923,0.921,0.92,0.918,0.916,0.914,0.913,0.912,0.911,0.91,0.909,0.908,0.908,0.908,0.907,0.906,0.905,0.905,0.905,0.905,0.905,0.906,0.907,0.908,0.909,0.911,0.912,0.913,0.914,0.916,0.917,0.919,0.92,0.922,0.923,0.924,0.926,0.927,0.929,0.93,0.932,0.933,0.934,0.934,0.936,0.936,0.936,0.936,0.936,0.936,0.936,0.936,0.935,0.934,0.935,0.935,0.936,0.937,0.937,0.937,0.939,0.941,0.942,0.944,0.946,0.948,0.95,0.953,0.955,0.957,0.959,0.962,0.964,0.966,0.968,0.97,0.97,0.973,0.976,0.977,0.98,0.982,0.984,0.987,0.989,0.992,0.994,0.997,0.998,1.001,1.003,1.005,1.007,1.009,1.012,1.014,1.016,1.018,1.02,1.021,1.024,1.026,1.028,1.03,1.032,1.034,1.036,1.037,1.036,1.035,1.035,1.036,1.036,1.036,1.036,1.037,1.038,1.04,1.041,1.042,1.043,1.044,1.045,1.047,1.048,1.05,1.05,1.052,1.054,1.055,1.057,1.058,1.059,1.062,1.064,1.066,1.068,1.069,1.07,1.071,1.072,1.073,1.073,1.074,1.075,1.076,1.076,1.077,1.078,1.078,1.079,1.078,1.078,1.079,1.08,1.081,1.083,1.084,1.088,1.09,1.092,1.095,1.097,1.099,1.102,1.104,1.106,1.107,1.11,1.114,1.117,1.119,1.123,1.126,1.13,1.132,1.134,1.138,1.141,1.145,1.148,1.152,1.157,1.16,1.165,1.169,1.173,1.175,1.176,1.179,1.18,1.184,1.185,1.188,1.189,1.19,1.193,1.194,1.195,1.197,1.197,1.198,1.198,1.198,1.199,1.199,1.199,1.198,1.198,1.198,1.198,1.198,1.198,1.197,1.195,1.195,1.194,1.194,1.194,1.194,1.193,1.193,1.194,1.194,1.195,1.195,1.197,1.198,1.199,1.202,1.205,1.206,1.207,1.21,1.212,1.214,1.214,1.215,1.216,1.216,1.219,1.22,1.222,1.222,0,0,0
