0,0,0,0,0,0,0,0,0,4.839,4.797,4.756,4.696,4.637,4.579,4.542,4.505,4.469,4.451,4.415,4.398,4.398,4.398,4.38,4.38,4.38,4.38,4.398,4.398,4.398,4.398,4.398,4.38,4.38,4.363,4.363,4.346,4.346,4.329,4.329,4.329,4.312,4.312,4.312,4.312,4.329,4.329,4.329,4.346,4.346,4.363,4.363,4.38,4.38,4.38,4.38,4.38,4.38,4.398,4.398,4.398,4.398,4.398,4.398,4.398,4.415,4.398,4.398,4.398,4.398,4.398,4.398,4.398,4.398,4.398,4.398,4.398,4.415,4.415,4.415,4.415,4.415,4.415,4.415,4.398,4.398,4.398,4.38,4.38,4.38,4.38,4.38,4.398,4.415,4.469,4.505,0,0,0,0,0,0,0,0,0,0,0,0,0,0,0,0,0,0,0,0,0,0,0,0,0,5.037,5.037,5.037,5.015,5.015,5.015,5.015,5.015,5.037,5.037,5.037,5.06,5.06,5.084,5.107,5.107,5.131,5.131,5.154,5.154,5.154,5.179,5.179,5.179,5.179,5.203,5.203,5.203,5.203,5.203,5.203,5.203,5.203,5.203,5.203,5.203,5.203,5.203,5.203,5.203,0,0,0,0,0,0,0,0,0,0,0,0,0,1.844,1.844,1.847,1.847,1.844,1.841,1.838,1.832,1.823,1.817,1.805,1.79,1.779,1.767,1.756,1.748,1.742,1.737,1.732,1.729,1.726,1.724,1.721,1.718,1.715,1.713,1.713,1.713,1.71,1.708,1.708,1.708,1.708,1.708,1.708,1.705,1.705,1.705,1.705,1.705,1.705,1.705,1.705,1.705,1.705,1.705,1.702,1.702,1.705,1.708,1.708,1.708,1.708,1.708,1.708,1.708,1.71,1.708,1.708,1.708,1.708,1.71,1.71,1.71,1.713,1.713,1.713,1.715,1.718,1.718,1.721,1.724,1.724,1.726,1.729,1.732,1.734,1.737,1.737,1.74,1.74,1.74,1.742,1.742,1.745,1.742,1.742,1.742,1.742,1.745,1.745,1.745,1.745,1.745,1.745,1.745,1.742,1.742,1.74,1.74,1.74,1.737,1.734,1.734,1.734,1.734,1.734,1.732,1.732,1.729,1.732,1.732,1.734,1.734,1.734,1.734,1.734,1.737,1.737,1.74,1.74,1.737,1.74,1.74,1.742,1.742,1.742,1.745,1.745,1.748,1.751,1.754,1.756,1.762,1.765,1.77,1.773,1.776,1.779,1.785,1.79,1.796,1.802,1.808,1.814,1.82,1.823,1.826,1.826,1.826,1.826,1.823,1.823,1.82,1.817,1.817,1.814,1.811,1.811,1.808,1.802,1.799,1.796,1.793,1.79,1.787,1.785,1.779,1.776,1.779,1.776,1.776,1.773,1.77,1.77,1.77,1.77,1.77,1.77,1.77,1.77,1.77,1.77,1.77,1.77,1.767,1.767,1.767,1.767,1.767,1.767,1.767,1.767,1.767,1.767,1.767,1.77,1.773,1.776,1.776,1.779,1.782,1.785,1.785,1.787,1.79,1.79,1.793,1.796,1.799,1.799,1.799,1.802,1.805,1.805,1.808,1.808,1.808,1.808,1.811,1.811,1.811,1.811,1.811,1.811,1.811,1.814,1.814,1.814,1.811,1.808,1.808,1.805,1.802,1.799,1.796,1.796,1.796,1.802,0,0,0,0,0,4.676,4.656,4.656,4.637,4.637,4.618,4.598,4.579,4.561,4.542,4.542,4.505,4.487,4.469,4.433,4.398,4.363,4.346,4.312,4.295,4.262,4.246,4.246,4.214,4.214,4.198,4.166,4.166,4.135,4.12,4.104,4.089,4.074,4.045,4.03,4.001,3.986,3.958,3.93,3.916,3.888,3.861,3.848,3.835,3.821,3.808,3.795,3.782,3.757,3.744,3.731,3.719,3.706,3.694,3.682,3.67,3.657,3.645,3.645,3.633,3.622,3.61,3.598,3.586,3.575,3.552,3.541,3.518,3.496,3.474,3.452,3.42,3.399,3.379,3.358,3.338,3.318,3.308,3.288,3.279,3.259,3.25,3.24,3.222,3.212,3.203,3.194,3.185,3.166,3.157,3.148,3.131,3.122,3.104,3.096,3.078,3.061,3.045,3.028,3.011,3.003,2.987
0,0,0,0,0,0,0,0,0,0,0,4.716,4.676,4.637,4.598,4.561,4.523,4.487,4.451,4.415,4.415,4.398,4.398,4.38,4.38,4.38,4.38,4.398,4.398,4.398,4.398,4.398,4.398,4.398,4.38,4.38,4.363,4.363,4.363,4.346,4.346,4.329,4.329,4.329,4.329,4.329,4.346,4.346,4.363,4.363,4.38,4.38,4.398,4.398,4.398,4.398,4.415,4.415,4.415,4.415,4.415,4.415,4.415,4.415,4.415,4.415,4.415,4.415,4.398,4.398,4.398,4.398,4.398,4.398,4.398,4.398,4.415,4.415,4.415,4.433,4.433,4.433,4.415,4.415,4.398,4.398,4.398,4.38,4.38,4.38,4.398,4.398,4.415,4.433,4.469,4.523,4.579,4.637,4.696,4.777,4.839,4.904,4.97,5.037,5.084,5.131,0,0,0,0,0,0,0,0,0,0,0,0,0,5.084,5.06,5.06,5.037,5.037,5.037,5.037,5.037,5.037,5.037,5.037,5.037,5.06,5.06,5.084,5.084,5.107,5.131,5.131,5.154,5.154,5.179,5.179,5.179,5.179,5.203,5.203,5.203,5.203,5.203,5.203,5.203,5.203,5.203,5.203,5.203,5.203,5.203,5.203,5.203,5.203,5.203,5.203,5.203,0,0,0,0,0,0,0,0,0,0,0,0,0,1.847,1.85,1.85,1.85,1.847,1.841,1.838,1.832,1.82,1.805,1.793,1.779,1.767,1.756,1.748,1.742,1.737,1.732,1.732,1.729,1.726,1.724,1.721,1.721,1.718,1.718,1.715,1.713,1.713,1.71,1.713,1.713,1.71,1.71,1.708,1.708,1.708,1.708,1.705,1.705,1.705,1.705,1.705,1.705,1.705,1.705,1.705,1.708,1.708,1.71,1.71,1.71,1.71,1.71,1.713,1.71,1.71,1.71,1.71,1.71,1.713,1.713,1.713,1.715,1.715,1.718,1.718,1.721,1.724,1.724,1.726,1.729,1.729,1.732,1.734,1.737,1.737,1.74,1.74,1.74,1.742,1.745,1.745,1.742,1.742,1.74,1.742,1.742,1.742,1.742,1.742,1.742,1.742,1.742,1.742,1.742,1.74,1.74,1.737,1.737,1.734,1.734,1.734,1.734,1.734,1.732,1.732,1.732,1.732,1.732,1.732,1.734,1.734,1.734,1.734,1.734,1.737,1.737,1.74,1.737,1.74,1.742,1.742,1.745,1.745,1.745,1.748,1.751,1.754,1.756,1.759,1.765,1.767,1.773,1.776,1.779,1.782,1.785,1.79,1.796,1.802,1.808,1.814,1.817,1.82,1.823,1.826,1.826,1.823,1.82,1.82,1.817,1.814,1.811,1.808,1.808,1.805,1.802,1.799,1.796,1.793,1.79,1.787,1.785,1.782,1.779,1.776,1.773,1.773,1.77,1.767,1.767,1.767,1.765,1.767,1.767,1.765,1.765,1.767,1.767,1.767,1.767,1.765,1.765,1.765,1.765,1.765,1.765,1.765,1.765,1.765,1.767,1.767,1.77,1.77,1.773,1.776,1.779,1.782,1.785,1.787,1.79,1.793,1.796,1.796,1.799,1.802,1.805,1.808,1.805,1.808,1.811,1.811,1.814,1.814,1.814,1.814,1.817,1.817,1.817,1.817,1.817,1.817,1.817,1.817,1.817,1.814,1.811,1.808,1.808,1.802,1.802,1.796,1.793,1.79,1.793,1.796,0,0,0,4.696,4.696,4.676,4.656,4.656,4.656,4.637,4.618,4.598,4.579,4.579,4.561,4.542,4.523,4.487,4.469,4.433,4.415,4.38,4.346,4.329,4.295,4.279,4.262,4.246,4.23,4.214,4.198,4.182,4.166,4.151,4.135,4.12,4.104,4.074,4.059,4.03,4.015,3.986,3.958,3.93,3.902,3.888,3.861,3.848,3.835,3.821,3.808,3.795,3.782,3.769,3.757,3.744,3.719,3.706,3.694,3.682,3.67,3.67,3.657,3.645,3.633,3.622,3.61,3.598,3.586,3.563,3.552,3.529,3.518,3.496,3.474,3.452,3.42,3.399,3.379,3.358,3.338,3.318,3.308,3.288,3.279,3.259,3.25,3.24,3.222,3.212,3.203,3.194,3.185,3.166,3.157,3.148,3.131,3.122,3.104,3.096,3.078,3.061,3.045,3.028,3.011,3.003,2.987
0,0,0,0,0,0,0,0,0,0,0,4.716,4.676,4.656,4.618,4.561,4.523,4.487,4.469,4.433,4.415,4.398,4.398,4.38,4.38,4.38,4.398,4.398,4.415,4.415,4.415,4.398,4.398,4.398,4.398,4.398,4.398,4.38,4.38,4.363,4.363,4.363,4.363,4.363,4.363,4.363,4.363,4.363,4.38,4.38,4.398,4.398,4.415,4.415,4.415,4.415,4.415,4.415,4.433,4.433,4.433,4.433,4.433,4.433,4.433,4.433,4.433,4.415,4.415,4.415,4.398,4.398,4.415,4.398,4.398,4.415,4.415,4.415,4.415,4.433,4.433,4.433,4.433,4.433,4.415,4.415,4.398,4.398,4.398,4.398,4.398,4.415,4.415,4.451,4.487,4.523,4.579,4.618,4.676,4.756,4.818,4.882,4.947,5.015,5.06,5.107,5.131,5.179,0,0,0,0,0,0,0,0,0,0,5.107,5.084,5.084,5.06,5.037,5.037,5.037,5.037,5.037,5.037,5.037,5.06,5.06,5.06,5.084,5.107,5.107,5.131,5.131,5.154,5.154,5.179,5.203,5.203,5.203,5.203,5.203,5.203,5.203,5.203,5.203,5.203,5.227,5.203,5.203,5.203,5.203,5.203,5.203,5.203,5.203,5.203,5.203,5.203,5.203,0,0,0,0,0,0,0,0,0,0,0,0,0,1.853,1.85,1.856,1.856,1.856,1.853,1.847,1.841,1.835,1.826,1.811,1.796,1.785,1.77,1.759,1.751,1.742,1.737,1.737,1.734,1.732,1.729,1.726,1.726,1.724,1.724,1.724,1.718,1.718,1.715,1.715,1.715,1.715,1.713,1.71,1.708,1.708,1.708,1.708,1.708,1.708,1.708,1.708,1.708,1.708,1.708,1.708,1.71,1.71,1.71,1.713,1.713,1.713,1.715,1.715,1.715,1.713,1.713,1.713,1.713,1.713,1.713,1.715,1.715,1.718,1.721,1.724,1.724,1.726,1.726,1.729,1.729,1.729,1.732,1.734,1.737,1.737,1.74,1.74,1.74,1.742,1.745,1.742,1.742,1.74,1.74,1.74,1.742,1.742,1.74,1.742,1.742,1.742,1.742,1.742,1.742,1.74,1.74,1.737,1.734,1.734,1.734,1.734,1.734,1.732,1.732,1.732,1.732,1.732,1.732,1.732,1.732,1.732,1.732,1.734,1.734,1.737,1.737,1.74,1.737,1.74,1.742,1.742,1.745,1.745,1.748,1.748,1.754,1.759,1.762,1.765,1.77,1.773,1.776,1.779,1.782,1.785,1.787,1.793,1.796,1.802,1.808,1.814,1.817,1.82,1.823,1.823,1.82,1.82,1.817,1.814,1.811,1.808,1.805,1.802,1.802,1.799,1.796,1.793,1.79,1.787,1.785,1.785,1.782,1.779,1.776,1.773,1.77,1.77,1.767,1.765,1.762,1.762,1.762,1.762,1.765,1.765,1.765,1.765,1.765,1.765,1.765,1.765,1.765,1.765,1.765,1.765,1.765,1.765,1.765,1.767,1.767,1.767,1.77,1.776,1.779,1.782,1.785,1.787,1.79,1.793,1.796,1.799,1.799,1.802,1.805,1.811,1.814,1.814,1.817,1.817,1.817,1.817,1.82,1.82,1.82,1.823,1.823,1.823,1.823,1.826,1.823,1.823,1.82,1.82,1.82,1.814,1.811,1.808,1.805,1.802,1.799,1.793,1.79,1.787,1.787,0,0,0,0,4.716,4.696,4.696,4.676,4.656,4.656,4.637,4.618,4.598,4.598,4.579,4.561,4.542,4.505,4.487,4.469,4.433,4.415,4.38,4.346,4.329,4.312,4.279,4.262,4.246,4.246,4.23,4.214,4.198,4.182,4.166,4.135,4.12,4.104,4.074,4.059,4.045,4.015,3.986,3.958,3.93,3.902,3.875,3.861,3.848,3.835,3.821,3.808,3.795,3.782,3.769,3.757,3.744,3.731,3.706,3.694,3.682,3.67,3.657,3.645,3.645,3.633,3.622,3.61,3.598,3.586,3.563,3.552,3.529,3.507,3.485,3.463,3.442,3.42,3.399,3.379,3.358,3.338,3.318,3.308,3.288,3.279,3.259,3.25,3.231,3.222,3.212,3.203,3.194,3.185,3.166,3.157,3.148,3.131,3.122,3.104,3.096,3.078,3.061,3.045,3.028,3.02,3.003,2.987
0,0,0,0,0,0,0,0,0,0,0,4.716,4.676,4.676,4.637,4.579,4.542,4.505,4.469,4.433,4.433,4.415,4.398,4.398,4.398,4.398,4.415,4.415,4.433,4.433,4.433,4.433,4.433,4.433,4.433,4.415,4.415,4.415,4.398,4.398,4.398,4.38,4.38,4.38,4.38,4.38,4.38,4.398,4.398,4.398,4.398,4.415,4.415,4.415,4.433,4.433,4.433,4.451,4.451,4.451,4.451,4.451,4.451,4.451,4.451,4.451,4.451,4.433,4.433,4.415,4.398,4.398,4.398,4.398,4.398,4.398,4.415,4.415,4.415,4.415,4.433,4.433,4.433,4.433,4.415,4.415,4.415,4.398,4.415,4.398,4.415,4.433,4.451,4.451,4.487,4.542,4.561,4.618,4.676,4.736,4.797,4.861,4.925,4.97,5.015,5.06,5.107,5.131,5.179,0,0,0,0,0,0,0,5.154,5.131,5.107,5.107,5.084,5.06,5.06,5.06,5.06,5.06,5.06,5.06,5.06,5.084,5.084,5.084,5.107,5.107,5.131,5.154,5.179,5.179,5.203,5.203,5.203,5.227,5.227,5.227,5.227,5.227,5.227,5.227,5.227,5.227,5.227,5.227,5.227,5.227,5.227,5.227,5.227,5.227,5.227,5.203,5.227,5.227,5.227,5.227,5.227,0,0,0,0,0,0,0,0,0,0,0,0,0,1.859,1.863,1.859,1.863,1.856,1.853,1.844,1.841,1.826,1.814,1.799,1.785,1.773,1.765,1.754,1.748,1.745,1.742,1.74,1.737,1.734,1.732,1.729,1.729,1.729,1.726,1.726,1.724,1.724,1.721,1.718,1.718,1.713,1.713,1.71,1.708,1.708,1.708,1.708,1.708,1.708,1.708,1.708,1.71,1.71,1.713,1.713,1.713,1.715,1.715,1.715,1.718,1.718,1.718,1.715,1.715,1.715,1.715,1.715,1.715,1.715,1.718,1.721,1.721,1.724,1.724,1.726,1.726,1.729,1.729,1.729,1.732,1.734,1.737,1.737,1.74,1.74,1.74,1.742,1.745,1.742,1.74,1.74,1.74,1.74,1.74,1.74,1.74,1.74,1.74,1.742,1.742,1.742,1.742,1.74,1.74,1.737,1.737,1.734,1.732,1.732,1.734,1.732,1.732,1.732,1.732,1.732,1.732,1.732,1.732,1.732,1.732,1.734,1.734,1.737,1.737,1.74,1.74,1.74,1.742,1.742,1.745,1.745,1.748,1.751,1.754,1.759,1.765,1.767,1.773,1.776,1.779,1.782,1.785,1.787,1.79,1.793,1.796,1.802,1.805,1.811,1.814,1.817,1.817,1.82,1.817,1.817,1.814,1.811,1.808,1.802,1.799,1.799,1.796,1.796,1.793,1.79,1.787,1.785,1.782,1.782,1.779,1.776,1.773,1.77,1.77,1.767,1.765,1.762,1.759,1.759,1.759,1.759,1.762,1.762,1.762,1.762,1.762,1.762,1.762,1.765,1.762,1.762,1.762,1.762,1.765,1.765,1.767,1.767,1.77,1.77,1.776,1.779,1.782,1.785,1.787,1.79,1.793,1.799,1.802,1.805,1.808,1.811,1.814,1.817,1.82,1.823,1.823,1.823,1.823,1.826,1.826,1.826,1.826,1.829,1.829,1.832,1.832,1.832,1.832,1.829,1.826,1.823,1.82,1.817,1.814,1.805,1.805,1.799,1.793,1.793,1.787,1.782,1.782,0,0,0,0,4.716,4.696,4.696,4.676,4.656,4.656,4.637,4.618,4.618,4.598,4.579,4.561,4.523,4.505,4.487,4.451,4.433,4.415,4.38,4.346,4.329,4.312,4.295,4.279,4.262,4.262,4.23,4.214,4.214,4.198,4.166,4.151,4.135,4.104,4.089,4.059,4.03,4.001,3.986,3.944,3.916,3.888,3.875,3.848,3.835,3.821,3.808,3.808,3.795,3.782,3.769,3.757,3.744,3.731,3.719,3.706,3.682,3.67,3.657,3.645,3.633,3.622,3.61,3.61,3.598,3.586,3.563,3.541,3.529,3.507,3.485,3.463,3.442,3.42,3.399,3.379,3.358,3.338,3.318,3.298,3.288,3.269,3.259,3.25,3.231,3.222,3.212,3.203,3.194,3.185,3.166,3.157,3.148,3.131,3.122,3.104,3.096,3.078,3.061,3.053,3.036,3.02,3.003,2.995
0,0,0,0,0,0,0,0,0,0,4.756,4.736,4.696,4.676,4.637,4.598,4.542,4.523,4.487,4.451,4.433,4.433,4.433,4.415,4.433,4.433,4.451,4.469,4.469,4.469,4.469,4.469,4.469,4.469,4.451,4.451,4.433,4.433,4.415,4.415,4.415,4.415,4.398,4.398,4.398,4.398,4.398,4.398,4.398,4.415,4.415,4.415,4.433,4.433,4.433,4.451,4.451,4.451,4.451,4.451,4.451,4.451,4.451,4.451,4.451,4.451,4.451,4.433,4.433,4.415,4.398,4.398,4.398,4.398,4.398,4.398,4.398,4.415,4.415,4.415,4.415,4.433,4.433,4.433,4.433,4.415,4.415,4.415,4.415,4.415,4.415,4.433,4.451,4.469,4.505,4.523,4.579,4.618,4.676,4.716,4.797,4.839,4.904,4.947,4.992,5.037,5.084,5.131,5.154,5.203,5.203,5.227,5.227,5.227,5.203,5.179,5.154,5.154,5.131,5.107,5.107,5.084,5.084,5.084,5.084,5.06,5.084,5.084,5.084,5.084,5.107,5.107,5.107,5.131,5.154,5.179,5.179,5.203,5.227,5.227,5.227,5.227,5.227,5.252,5.252,5.252,5.252,5.252,5.252,5.227,5.252,5.227,5.227,5.227,5.227,5.227,5.227,5.227,5.227,5.227,5.227,5.227,5.227,5.227,5.227,5.227,0,0,0,0,0,0,0,0,0,0,0,0,0,1.866,1.866,1.869,1.866,1.863,1.859,1.85,1.841,1.829,1.817,1.802,1.787,1.776,1.765,1.756,1.754,1.751,1.748,1.745,1.742,1.74,1.74,1.74,1.737,1.737,1.734,1.734,1.732,1.729,1.729,1.724,1.721,1.715,1.715,1.71,1.71,1.708,1.708,1.71,1.71,1.71,1.71,1.71,1.713,1.715,1.715,1.718,1.718,1.718,1.718,1.721,1.721,1.721,1.718,1.718,1.715,1.715,1.718,1.718,1.718,1.721,1.721,1.724,1.724,1.726,1.726,1.729,1.729,1.729,1.729,1.732,1.732,1.737,1.737,1.74,1.74,1.74,1.742,1.745,1.742,1.74,1.74,1.74,1.74,1.74,1.74,1.737,1.74,1.74,1.742,1.742,1.742,1.742,1.74,1.74,1.737,1.737,1.734,1.732,1.732,1.732,1.732,1.732,1.732,1.732,1.732,1.732,1.732,1.732,1.732,1.734,1.734,1.737,1.737,1.74,1.74,1.74,1.74,1.742,1.742,1.745,1.745,1.748,1.751,1.754,1.762,1.765,1.767,1.773,1.776,1.779,1.782,1.785,1.785,1.787,1.79,1.793,1.796,1.802,1.805,1.811,1.814,1.814,1.811,1.811,1.811,1.808,1.805,1.802,1.799,1.796,1.793,1.793,1.79,1.787,1.785,1.785,1.782,1.779,1.779,1.776,1.773,1.77,1.767,1.767,1.765,1.765,1.762,1.759,1.759,1.759,1.759,1.759,1.759,1.759,1.759,1.762,1.762,1.765,1.762,1.765,1.765,1.765,1.765,1.765,1.767,1.767,1.77,1.773,1.776,1.779,1.782,1.787,1.79,1.793,1.799,1.802,1.808,1.811,1.814,1.817,1.82,1.823,1.826,1.829,1.832,1.832,1.832,1.832,1.835,1.835,1.838,1.838,1.838,1.838,1.841,1.841,1.841,1.838,1.835,1.832,1.829,1.826,1.82,1.814,1.811,1.805,1.799,1.796,1.79,1.785,1.779,0,0,0,4.756,4.736,4.716,4.716,4.696,4.676,4.656,4.656,4.637,4.618,4.618,4.598,4.579,4.561,4.523,4.505,4.469,4.451,4.433,4.415,4.38,4.346,4.329,4.312,4.312,4.295,4.279,4.262,4.246,4.23,4.214,4.198,4.182,4.151,4.135,4.104,4.089,4.059,4.03,4.001,3.972,3.944,3.916,3.888,3.875,3.848,3.835,3.821,3.808,3.795,3.795,3.782,3.769,3.757,3.744,3.731,3.719,3.706,3.694,3.682,3.657,3.645,3.645,3.633,3.61,3.598,3.586,3.575,3.563,3.541,3.518,3.496,3.474,3.452,3.431,3.41,3.389,3.368,3.348,3.328,3.318,3.298,3.279,3.269,3.25,3.24,3.231,3.222,3.212,3.203,3.194,3.185,3.175,3.157,3.148,3.139,3.122,3.113,3.096,3.078,3.07,3.053,3.036,3.028,3.011,3.003
0,0,0,0,0,0,0,0,0,0,4.777,4.736,4.716,4.696,4.656,4.598,4.561,4.523,4.487,4.469,4.451,4.451,4.451,4.433,4.451,4.451,4.469,4.487,4.487,4.505,4.487,4.487,4.487,4.487,4.487,4.469,4.469,4.451,4.433,4.433,4.433,4.415,4.415,4.415,4.398,4.398,4.398,4.415,4.415,4.415,4.415,4.415,4.433,4.451,4.451,4.451,4.451,4.451,4.451,4.451,4.451,4.451,4.451,4.451,4.451,4.451,4.451,4.433,4.433,4.415,4.398,4.398,4.398,4.398,4.38,4.398,4.398,4.415,4.415,4.415,4.415,4.415,4.433,4.415,4.433,4.415,4.415,4.415,4.433,4.415,4.433,4.451,4.451,4.487,4.505,4.542,4.579,4.618,4.676,4.716,4.777,4.839,4.882,4.925,4.97,5.015,5.06,5.107,5.154,5.179,5.203,5.203,5.227,5.227,5.203,5.203,5.179,5.154,5.154,5.131,5.131,5.131,5.107,5.107,5.107,5.084,5.084,5.107,5.107,5.107,5.107,5.131,5.131,5.154,5.179,5.203,5.203,5.227,5.227,5.252,5.252,5.252,5.252,5.277,5.277,5.277,5.252,5.252,5.252,5.252,5.252,5.252,5.252,5.252,5.252,5.252,5.252,5.252,5.252,5.252,5.252,5.252,5.252,5.252,5.252,5.252,5.252,5.277,0,0,0,0,0,0,0,0,0,0,0,0,0,1.875,1.878,1.875,1.872,1.863,1.853,1.844,0,1.823,1.811,1.796,1.785,1.776,1.767,1.762,1.759,1.754,1.751,1.745,1.745,1.748,1.745,1.745,1.742,1.74,1.737,1.737,1.734,1.729,1.726,1.724,1.718,1.715,1.713,1.71,1.71,1.713,1.713,1.713,1.713,1.715,1.718,1.718,1.721,1.721,1.721,1.721,1.721,1.724,1.724,1.724,1.721,1.718,1.718,1.718,1.721,1.721,1.721,1.724,1.724,1.724,1.726,1.726,1.729,1.729,1.729,1.729,1.729,1.732,1.732,1.734,1.734,1.734,1.737,1.737,1.74,1.74,1.74,1.74,1.737,1.737,1.737,1.737,1.737,1.734,1.737,1.737,1.74,1.742,1.742,1.742,1.74,1.74,1.737,1.737,1.734,1.734,1.734,1.734,1.732,1.732,1.732,1.732,1.734,1.734,1.734,1.734,1.732,1.734,1.737,1.737,1.74,1.742,1.742,1.742,1.742,1.742,1.745,1.745,1.745,1.748,1.751,1.754,1.759,1.765,1.767,1.77,1.773,1.776,1.779,1.782,1.785,1.785,1.79,1.79,1.793,1.796,1.802,1.805,1.808,1.808,1.808,1.808,1.805,1.805,1.802,1.799,1.796,1.793,1.79,1.79,1.787,1.787,1.782,1.782,1.779,1.779,1.776,1.776,1.773,1.77,1.767,1.767,1.765,1.762,1.759,1.759,1.756,1.756,1.759,1.759,1.759,1.759,1.762,1.762,1.762,1.765,1.765,1.765,1.767,1.767,1.77,1.77,1.773,1.773,1.773,1.776,1.779,1.785,1.787,1.793,1.799,1.802,1.808,1.811,1.817,1.82,1.823,1.823,1.829,1.832,1.835,1.835,1.838,1.838,1.841,1.841,1.844,1.844,1.847,1.847,1.847,1.847,1.847,1.85,1.847,1.844,1.841,1.838,1.835,1.829,1.823,1.817,1.811,1.805,1.802,1.796,1.79,0,0,0,0,4.777,4.756,4.736,4.736,4.716,4.696,4.676,4.676,4.656,4.637,4.618,4.618,4.598,4.579,4.561,4.523,4.505,4.469,4.451,4.433,4.398,4.38,4.363,4.329,4.329,4.312,4.295,4.279,4.262,4.246,4.246,4.23,4.198,4.182,4.151,4.135,4.104,4.089,4.059,4.03,4.001,3.972,3.944,3.916,3.888,3.875,3.848,3.835,3.821,3.808,3.795,3.795,3.782,3.769,3.757,3.744,3.731,3.719,3.706,3.694,3.682,3.67,3.657,3.645,3.633,3.622,3.598,3.586,3.575,3.563,3.541,3.518,3.496,3.474,3.452,3.431,3.399,3.379,3.358,3.338,3.328,3.308,3.288,3.279,3.259,3.25,3.24,3.231,3.222,3.203,3.203,3.194,3.185,3.175,3.157,3.148,3.139,3.122,3.113,3.096,3.087,3.07,3.053,3.045,3.028,3.02,3.003
0,0,0,0,0,0,0,0,0,4.839,4.797,4.777,4.736,4.716,4.676,4.637,4.579,4.542,4.505,4.487,4.469,4.469,4.469,4.451,4.469,4.487,4.505,4.523,4.523,4.523,4.523,4.523,4.523,4.505,4.505,4.487,4.487,4.469,4.451,4.433,4.433,4.433,4.415,4.415,4.415,4.398,4.398,4.415,4.415,4.415,4.415,4.433,4.433,4.433,4.451,4.451,4.451,4.451,4.451,4.451,4.451,4.451,4.451,4.451,4.451,4.451,4.451,4.433,4.433,4.415,4.415,4.398,4.398,4.398,4.38,4.38,4.398,4.398,4.398,4.415,4.415,4.415,4.415,4.415,4.415,4.415,4.415,4.415,4.433,4.433,4.433,4.451,4.469,4.487,4.523,4.542,4.579,4.618,4.656,4.696,4.736,4.777,4.839,4.904,4.947,4.992,5.037,5.084,5.131,5.179,5.203,5.227,5.227,5.227,5.227,5.203,5.203,5.179,5.179,5.179,5.154,5.154,5.131,5.131,5.131,5.131,5.107,5.107,5.131,5.131,5.131,5.154,5.154,5.179,5.203,5.203,5.227,5.227,5.252,5.252,5.277,5.277,5.277,5.277,5.277,5.277,5.277,5.277,5.277,5.277,5.277,5.277,5.277,5.252,5.277,5.277,5.277,5.277,5.277,5.277,5.277,5.277,5.277,5.277,5.277,5.277,5.277,5.302,5.302,0,0,0,0,0,0,0,0,0,0,0,0,0,1.885,1.882,1.882,1.878,1.869,1.859,1.853,1.841,1.832,1.82,1.808,1.796,1.787,1.782,1.776,1.77,1.765,1.762,1.759,1.759,1.756,1.756,1.756,1.754,1.751,1.748,1.745,1.74,1.734,1.732,1.724,1.721,1.718,1.715,1.715,1.715,1.715,1.715,1.715,1.718,1.721,1.724,1.724,1.724,1.724,1.724,1.724,1.726,1.726,1.724,1.724,1.721,1.721,1.721,1.724,1.724,1.724,1.724,1.726,1.726,1.726,1.729,1.729,1.729,1.729,1.729,1.729,1.732,1.732,1.732,1.734,1.732,1.734,1.734,1.734,1.737,1.734,1.734,1.734,1.734,1.734,1.734,1.732,1.734,1.734,1.737,1.737,1.74,1.74,1.74,1.74,1.74,1.737,1.737,1.734,1.734,1.734,1.734,1.734,1.732,1.732,1.734,1.734,1.734,1.734,1.734,1.734,1.734,1.737,1.74,1.74,1.742,1.742,1.742,1.742,1.745,1.745,1.748,1.748,1.751,1.751,1.756,1.762,1.765,1.767,1.77,1.773,1.776,1.779,1.782,1.782,1.785,1.787,1.79,1.793,1.796,1.799,1.802,1.802,1.805,1.805,1.802,1.802,1.802,1.799,1.796,1.793,1.79,1.787,1.787,1.787,1.785,1.782,1.779,1.779,1.779,1.776,1.776,1.773,1.77,1.767,1.765,1.765,1.762,1.759,1.759,1.759,1.762,1.762,1.762,1.762,1.762,1.765,1.765,1.767,1.767,1.767,1.77,1.77,1.773,1.773,1.776,1.776,1.779,1.782,1.782,1.787,1.79,1.796,1.802,1.808,1.811,1.817,1.82,1.826,1.829,1.832,1.835,1.838,1.841,1.844,1.847,1.847,1.85,1.85,1.85,1.853,1.853,1.853,1.853,1.856,1.856,1.856,1.856,1.856,1.853,1.85,1.841,1.838,1.835,1.826,1.817,1.811,1.805,1.799,1.796,0,0,0,0,0,4.797,4.777,4.756,4.736,4.716,4.696,4.676,4.676,4.656,4.637,4.618,4.618,4.598,4.579,4.561,4.523,4.505,4.469,4.451,4.433,4.398,4.38,4.363,4.346,4.329,4.312,4.312,4.295,4.279,4.262,4.246,4.23,4.214,4.182,4.151,4.135,4.104,4.089,4.045,4.015,4.001,3.958,3.93,3.916,3.888,3.861,3.848,3.835,3.821,3.808,3.795,3.795,3.782,3.769,3.757,3.744,3.731,3.719,3.706,3.694,3.682,3.67,3.657,3.645,3.633,3.622,3.61,3.586,3.575,3.552,3.541,3.518,3.485,3.463,3.442,3.42,3.389,3.368,3.348,3.338,3.318,3.298,3.279,3.269,3.259,3.25,3.231,3.222,3.212,3.203,3.203,3.194,3.185,3.175,3.166,3.148,3.139,3.131,3.113,3.104,3.087,3.07,3.061,3.045,3.036,3.02,3.011
0,0,0,0,0,0,0,0,0,4.882,4.839,4.818,4.777,4.736,4.716,4.656,4.598,4.561,4.505,4.505,4.487,4.487,4.469,4.469,4.487,4.505,4.523,4.561,4.561,4.561,4.561,4.561,4.542,4.542,4.523,4.505,4.505,4.469,4.451,4.451,4.433,4.433,4.415,4.415,4.398,4.398,4.398,4.398,4.398,4.415,4.415,4.415,4.433,4.433,4.433,4.433,4.433,4.433,4.451,4.451,4.433,4.433,4.433,4.433,4.433,4.451,4.433,4.433,4.415,4.415,4.415,4.398,4.398,4.398,4.398,4.38,4.398,4.398,4.398,4.415,4.415,4.415,4.415,4.415,4.415,4.415,4.415,4.415,4.433,4.451,4.451,4.469,4.487,4.505,4.523,4.561,4.579,4.618,4.637,4.676,4.716,4.756,4.818,4.861,4.925,4.97,5.015,5.084,5.107,5.154,5.203,5.227,5.227,5.227,5.227,5.227,5.227,5.203,5.203,5.203,5.179,5.179,5.179,5.154,5.154,5.154,5.131,5.131,5.154,5.154,5.154,5.179,5.179,5.203,5.203,5.227,5.252,5.252,5.252,5.277,5.277,5.277,5.277,5.277,5.277,5.277,5.277,5.277,5.277,5.277,5.277,5.302,5.277,5.277,5.277,5.302,5.302,5.302,5.302,5.302,5.302,5.302,5.302,5.302,5.302,5.302,5.302,5.302,5.302,0,0,0,0,0,0,0,0,0,0,0,0,0,1.888,1.891,1.888,1.882,1.878,1.872,1.866,1.856,1.844,1.838,1.826,1.817,1.811,1.802,1.793,1.79,1.785,1.782,1.779,1.776,1.776,1.776,1.773,1.773,1.767,1.765,1.759,1.754,1.745,1.74,1.734,1.729,1.724,1.721,1.721,1.724,1.724,1.724,1.724,1.724,1.726,1.729,1.729,1.726,1.726,1.726,1.726,1.726,1.726,1.726,1.724,1.724,1.724,1.724,1.726,1.726,1.726,1.726,1.726,1.726,1.729,1.729,1.729,1.732,1.732,1.729,1.729,1.729,1.732,1.732,1.732,1.732,1.732,1.732,1.734,1.734,1.732,1.732,1.732,1.732,1.732,1.732,1.732,1.732,1.732,1.734,1.737,1.737,1.737,1.737,1.737,1.737,1.737,1.737,1.734,1.734,1.734,1.734,1.734,1.732,1.734,1.734,1.734,1.734,1.734,1.734,1.734,1.737,1.737,1.742,1.742,1.742,1.742,1.745,1.745,1.748,1.748,1.748,1.751,1.754,1.754,1.756,1.765,1.767,1.77,1.773,1.773,1.776,1.779,1.782,1.782,1.782,1.785,1.787,1.79,1.793,1.796,1.799,1.799,1.802,1.802,1.802,1.802,1.799,1.796,1.793,1.793,1.787,1.787,1.785,1.785,1.785,1.782,1.779,1.779,1.779,1.779,1.776,1.773,1.77,1.77,1.767,1.767,1.765,1.765,1.762,1.762,1.765,1.765,1.765,1.767,1.767,1.767,1.77,1.77,1.77,1.773,1.773,1.776,1.779,1.779,1.782,1.785,1.785,1.787,1.79,1.793,1.799,1.805,1.811,1.814,1.82,1.826,1.832,1.835,1.838,1.841,1.844,1.847,1.85,1.853,1.853,1.856,1.859,1.859,1.859,1.863,1.863,1.863,1.863,1.866,1.866,1.866,1.866,1.866,1.863,1.856,1.85,1.844,1.838,1.829,1.82,1.811,1.802,1.796,1.79,0,0,0,0,4.818,4.797,4.777,4.756,4.736,4.716,4.696,4.696,4.676,4.656,4.637,4.618,4.618,4.598,4.579,4.561,4.523,4.505,4.469,4.451,4.433,4.415,4.38,4.363,4.346,4.329,4.312,4.312,4.295,4.279,4.262,4.246,4.23,4.214,4.182,4.151,4.135,4.104,4.074,4.045,4.015,3.986,3.958,3.93,3.902,3.888,3.861,3.848,3.835,3.821,3.808,3.795,3.795,3.782,3.769,3.757,3.744,3.731,3.706,3.706,3.694,3.682,3.67,3.657,3.645,3.633,3.622,3.61,3.586,3.575,3.552,3.529,3.507,3.485,3.463,3.431,3.399,3.379,3.358,3.338,3.318,3.308,3.288,3.279,3.269,3.259,3.24,3.231,3.222,3.212,3.203,3.203,3.194,3.185,3.175,3.166,3.157,3.148,3.139,3.122,3.104,3.096,3.078,3.061,3.053,3.036,3.028,3.011
0,0,0,0,0,0,0,0,4.947,4.904,4.861,4.839,4.797,4.756,4.716,4.656,4.618,4.561,4.523,4.505,4.505,4.487,4.487,4.505,4.505,4.523,4.561,4.579,4.579,4.598,4.579,4.579,4.561,4.561,4.523,4.523,4.505,4.469,4.451,4.433,4.415,4.415,4.398,4.398,4.38,4.38,4.398,4.398,4.398,4.398,4.398,4.415,4.415,4.433,4.433,4.433,4.433,4.433,4.433,4.433,4.433,4.433,4.433,4.433,4.433,4.433,4.433,4.433,4.415,4.415,4.415,4.415,4.398,4.398,4.398,4.398,4.398,4.398,4.398,4.415,4.415,4.415,4.415,4.415,4.415,4.415,4.415,4.433,4.433,4.451,4.451,4.469,4.487,4.523,4.542,4.561,4.579,4.618,4.637,4.656,4.696,4.716,4.777,4.839,4.904,4.947,4.992,5.06,5.107,5.154,5.203,5.227,5.227,5.227,5.252,5.252,5.252,5.227,5.227,5.227,5.227,5.203,5.203,5.179,5.179,5.179,5.154,5.179,5.179,5.179,5.179,5.179,5.203,5.203,5.227,5.227,5.252,5.252,5.277,5.277,5.277,5.277,5.277,5.277,5.302,5.302,5.302,5.302,5.302,5.302,5.302,5.302,5.302,5.302,5.302,5.302,5.328,5.328,5.328,5.328,5.328,5.328,5.328,5.328,5.328,5.328,5.328,5.328,5.328,0,0,0,0,0,0,0,0,0,0,0,0,0,1.894,1.894,1.894,1.888,1.885,1.878,1.875,1.869,1.859,1.85,1.844,1.835,1.829,1.82,1.814,1.808,1.805,1.802,1.799,1.796,1.796,1.793,1.793,1.79,1.787,1.782,1.776,1.767,1.756,1.748,1.742,1.737,1.732,1.729,1.729,1.729,1.729,1.729,1.729,1.729,1.732,1.732,1.732,1.732,1.729,1.729,1.729,1.729,1.729,1.729,1.726,1.724,1.724,1.726,1.726,1.726,1.729,1.729,1.729,1.729,1.729,1.729,1.732,1.732,1.732,1.732,1.729,1.729,1.732,1.732,1.729,1.729,1.729,1.729,1.732,1.732,1.732,1.732,1.732,1.732,1.732,1.729,1.729,1.729,1.732,1.732,1.734,1.737,1.737,1.737,1.737,1.737,1.737,1.734,1.734,1.734,1.734,1.734,1.734,1.732,1.734,1.734,1.734,1.734,1.734,1.737,1.737,1.737,1.74,1.742,1.742,1.742,1.745,1.745,1.748,1.748,1.751,1.751,1.754,1.754,1.756,1.759,1.765,1.767,1.77,1.773,1.773,1.776,1.779,1.782,1.782,1.782,1.785,1.787,1.79,1.793,1.793,1.796,1.796,1.799,1.799,1.799,1.799,1.796,1.796,1.79,1.79,1.787,1.785,1.785,1.782,1.782,1.782,1.779,1.779,1.779,1.779,1.776,1.776,1.773,1.773,1.77,1.77,1.767,1.767,1.767,1.767,1.77,1.77,1.77,1.773,1.773,1.773,1.773,1.776,1.776,1.776,1.779,1.782,1.785,1.787,1.79,1.79,1.793,1.796,1.799,1.805,1.808,1.814,1.82,1.823,1.829,1.838,1.841,1.847,1.85,1.85,1.853,1.856,1.859,1.863,1.863,1.866,1.866,1.869,1.869,1.869,1.872,1.872,1.872,1.872,1.875,1.875,1.872,1.872,1.869,1.863,1.856,1.847,1.838,1.826,1.817,1.811,1.802,0,0,0,0,4.861,4.839,4.818,4.797,4.777,4.756,4.736,4.736,4.716,4.696,4.676,4.656,4.637,4.618,4.618,4.598,4.579,4.561,4.523,4.505,4.469,4.451,4.433,4.415,4.398,4.363,4.346,4.329,4.329,4.312,4.295,4.295,4.279,4.262,4.246,4.214,4.182,4.151,4.135,4.104,4.074,4.045,4.015,3.986,3.958,3.93,3.902,3.888,3.861,3.848,3.835,3.821,3.808,3.795,3.795,3.782,3.769,3.757,3.744,3.731,3.706,3.694,3.682,3.67,3.67,3.657,3.645,3.633,3.622,3.598,3.586,3.563,3.541,3.518,3.496,3.474,3.452,3.42,3.399,3.379,3.358,3.338,3.318,3.298,3.288,3.269,3.259,3.25,3.24,3.231,3.222,3.212,3.203,3.203,3.194,3.185,3.185,3.175,3.166,3.157,3.139,3.131,3.113,3.096,3.087,3.07,3.053,3.045,3.028,3.02
0,0,0,0,0,0,0,0,4.947,4.904,4.882,4.839,4.797,4.777,4.736,4.676,4.618,4.579,4.542,4.523,4.505,4.505,4.505,4.523,4.523,4.542,4.561,4.598,4.598,4.598,4.598,4.579,4.561,4.561,4.542,4.505,4.487,4.469,4.451,4.433,4.415,4.398,4.398,4.38,4.38,4.38,4.38,4.38,4.38,4.398,4.398,4.398,4.415,4.415,4.415,4.415,4.433,4.433,4.433,4.433,4.433,4.433,4.433,4.433,4.433,4.433,4.433,4.433,4.415,4.415,4.415,4.415,4.415,4.415,4.398,4.398,4.415,4.415,4.415,4.415,4.415,4.415,4.415,4.415,4.415,4.415,4.415,4.433,4.433,4.451,4.469,4.469,4.505,4.523,4.542,4.561,4.579,4.618,4.637,4.656,4.676,4.716,4.756,4.818,4.882,4.925,4.97,5.037,5.107,5.154,5.203,5.227,5.252,5.252,5.252,5.252,5.277,5.252,5.252,5.252,5.252,5.227,5.227,5.203,5.203,5.203,5.203,5.179,5.179,5.179,5.179,5.203,5.203,5.227,5.227,5.227,5.252,5.252,5.277,5.277,5.277,5.302,5.302,5.302,5.302,5.302,5.302,5.277,5.277,5.277,5.302,5.302,5.302,5.328,5.328,5.328,5.354,5.354,5.354,5.354,5.354,5.354,5.354,5.354,5.354,5.354,5.354,5.354,5.354,5.354,0,0,0,0,0,0,0,0,0,0,0,0,0,1.898,1.898,1.891,1.891,1.888,1.885,1.878,1.872,1.869,1.863,1.856,1.85,1.844,1.835,1.829,1.826,1.823,1.82,1.817,1.817,1.817,1.817,1.814,1.811,1.802,1.79,1.782,1.77,1.759,1.751,1.742,1.737,1.732,1.732,1.732,1.734,1.734,1.734,1.734,1.737,1.737,1.737,1.734,1.734,1.732,1.732,1.732,1.729,1.729,1.726,1.726,1.726,1.729,1.729,1.729,1.729,1.729,1.729,1.729,1.729,1.732,1.732,1.732,1.732,1.732,1.729,1.729,1.729,1.729,1.729,1.726,1.726,1.729,1.732,1.732,1.732,1.729,1.729,1.729,1.729,1.729,1.729,1.729,1.729,1.732,1.732,1.734,1.734,1.734,1.737,1.737,1.734,1.734,1.734,1.732,1.734,1.734,1.734,1.732,1.734,1.734,1.734,1.737,1.737,1.737,1.737,1.74,1.742,1.745,1.745,1.745,1.748,1.748,1.748,1.751,1.751,1.751,1.754,1.756,1.759,1.762,1.765,1.767,1.77,1.773,1.773,1.776,1.779,1.782,1.779,1.782,1.785,1.787,1.787,1.79,1.793,1.793,1.796,1.796,1.796,1.796,1.796,1.796,1.793,1.79,1.787,1.787,1.785,1.785,1.785,1.782,1.782,1.782,1.782,1.782,1.782,1.779,1.779,1.779,1.776,1.776,1.773,1.773,1.773,1.77,1.773,1.773,1.776,1.776,1.776,1.779,1.779,1.779,1.782,1.782,1.785,1.787,1.787,1.79,1.793,1.799,1.802,1.802,1.805,1.811,1.814,1.82,1.826,1.829,1.835,1.838,1.847,1.85,1.856,1.859,1.859,1.863,1.866,1.866,1.869,1.872,1.872,1.875,1.875,1.878,1.878,1.882,1.885,1.885,1.882,1.882,1.882,1.878,1.878,1.872,1.866,1.856,1.85,1.841,1.829,1.823,0,0,0,0,0,4.904,4.861,4.839,4.818,4.797,4.797,4.777,4.756,4.736,4.716,4.696,4.676,4.656,4.637,4.637,4.618,4.598,4.579,4.561,4.542,4.505,4.487,4.451,4.433,4.415,4.398,4.38,4.363,4.346,4.329,4.329,4.312,4.295,4.279,4.262,4.246,4.214,4.182,4.151,4.135,4.104,4.074,4.045,4.015,3.986,3.958,3.93,3.902,3.888,3.861,3.848,3.835,3.821,3.808,3.808,3.795,3.782,3.769,3.757,3.744,3.731,3.706,3.694,3.682,3.67,3.657,3.645,3.633,3.622,3.61,3.598,3.586,3.563,3.541,3.518,3.496,3.474,3.442,3.42,3.389,3.379,3.348,3.328,3.308,3.298,3.288,3.269,3.259,3.25,3.24,3.231,3.212,3.212,3.203,3.203,3.194,3.194,3.185,3.175,3.166,3.157,3.148,3.139,3.122,3.104,3.087,3.07,3.061,3.045,3.036,3.02
0,0,0,0,0,0,0,0,4.947,4.904,4.861,4.818,4.797,4.777,4.716,4.676,4.637,4.579,4.561,4.542,4.542,4.523,4.523,4.542,4.542,4.561,4.579,4.598,4.598,4.598,4.598,4.598,4.579,4.561,4.523,4.505,4.487,4.469,4.433,4.433,4.415,4.398,4.38,4.38,4.38,4.38,4.38,4.38,4.38,4.38,4.38,4.398,4.398,4.398,4.398,4.398,4.398,4.398,4.415,4.415,4.415,4.415,4.415,4.415,4.415,4.415,4.415,4.433,4.415,4.415,4.415,4.415,4.415,4.415,4.415,4.415,4.415,4.415,4.415,4.415,4.415,4.415,4.415,4.415,4.415,4.415,4.433,4.433,4.451,4.469,4.469,4.487,4.505,4.542,4.561,4.579,4.598,4.618,4.637,4.656,4.676,4.716,4.756,4.818,4.861,4.904,4.97,5.037,5.107,5.154,5.203,5.227,5.252,5.277,5.277,5.277,5.302,5.302,5.277,5.277,5.277,5.252,5.252,5.227,5.227,5.227,5.203,5.203,5.203,5.203,5.203,5.227,5.227,5.252,5.252,5.252,5.252,5.277,5.277,5.302,5.302,5.302,5.302,5.302,5.302,5.302,5.302,5.302,5.302,5.302,5.302,5.328,5.328,5.328,5.354,5.354,5.38,5.38,5.38,5.38,5.38,5.38,5.406,5.38,5.38,5.38,5.38,5.38,5.354,5.354,5.354,5.354,5.354,0,0,0,0,0,0,0,0,0,0,0,0,0,1.894,1.894,1.891,1.888,1.882,1.882,1.878,1.875,1.869,1.863,1.856,1.85,0,1.847,1.844,1.841,1.841,1.841,1.841,1.838,1.832,1.823,1.811,1.799,1.785,1.77,1.759,1.751,1.742,1.737,1.737,1.737,1.74,1.74,1.74,1.74,1.74,1.74,1.74,1.74,1.737,1.734,1.734,1.732,1.732,1.732,1.729,1.729,1.729,1.729,1.729,1.729,1.732,1.732,1.729,1.729,1.729,1.732,1.732,1.732,1.732,1.729,1.729,1.729,1.729,1.729,1.726,1.726,1.726,1.726,1.729,1.732,1.729,1.729,1.729,1.729,1.729,1.729,1.726,1.726,1.729,1.732,1.732,1.734,1.732,1.734,1.734,1.734,1.734,1.734,1.734,1.734,1.734,1.734,1.732,1.732,1.734,1.734,1.737,1.737,1.737,1.74,1.742,1.742,1.745,1.748,1.748,1.748,1.748,1.751,1.751,1.751,1.754,1.754,1.756,1.756,1.759,1.762,1.765,1.767,1.77,1.773,1.773,1.776,1.779,1.779,1.782,1.782,1.782,1.785,1.787,1.787,1.79,1.79,1.793,1.793,1.793,1.793,1.793,1.793,1.793,1.79,1.79,1.787,1.787,1.785,1.785,1.785,1.785,1.785,1.785,1.785,1.785,1.785,1.785,1.785,1.782,1.782,1.782,1.782,1.782,1.779,1.782,1.782,1.782,1.785,1.785,1.785,1.785,1.787,1.787,1.79,1.79,1.793,1.796,1.799,1.805,1.808,1.811,1.814,1.817,1.82,1.826,1.829,1.835,1.838,1.841,1.847,1.853,1.859,1.863,1.866,1.869,1.869,1.872,1.875,1.878,1.878,1.882,1.885,1.885,1.888,1.891,1.891,1.891,1.891,1.888,1.888,1.888,1.888,1.882,1.878,1.869,1.863,1.853,1.844,0,0,0,0,0,0,4.925,4.904,4.882,4.861,4.839,4.818,4.797,4.777,4.756,4.736,4.716,4.696,4.676,4.656,4.656,4.637,4.618,4.598,4.579,4.561,4.542,4.523,4.487,4.469,4.451,4.433,4.398,4.38,4.363,4.363,4.346,4.329,4.312,4.295,4.295,4.262,4.246,4.214,4.182,4.151,4.135,4.104,4.074,4.045,4.015,3.986,3.958,3.93,3.916,3.888,3.861,3.848,3.835,3.835,3.821,3.808,3.795,3.782,3.769,3.757,3.744,3.731,3.706,3.694,3.682,3.67,3.657,3.645,3.633,3.622,3.61,3.598,3.575,3.563,3.541,3.507,3.485,3.463,3.442,3.41,3.389,3.368,3.348,3.328,3.308,3.298,3.279,3.269,3.259,3.25,3.231,3.222,3.212,3.212,3.203,3.194,3.194,3.185,3.185,3.175,3.166,3.157,3.148,3.139,3.122,3.104,3.087,3.078,3.061,3.053,3.036,3.028
0,0,0,0,0,0,0,0,4.925,4.904,4.861,4.818,4.797,4.777,4.736,4.676,4.637,4.598,4.561,4.561,4.542,4.542,4.542,4.542,4.561,4.561,4.579,4.598,4.598,4.598,4.579,4.579,4.561,4.542,4.523,4.505,4.487,4.451,4.433,4.415,4.415,4.398,4.38,4.38,4.38,4.38,4.38,4.38,4.363,4.363,4.38,4.38,4.38,4.398,4.38,4.38,4.38,4.398,4.398,4.398,4.398,4.398,4.398,4.398,4.398,4.398,4.398,4.398,4.398,4.415,4.415,4.415,4.415,4.415,4.415,4.415,4.415,4.415,4.415,4.415,4.415,4.415,4.415,4.415,4.415,4.415,4.433,4.433,4.451,4.469,4.487,4.487,4.523,4.542,4.561,4.579,4.598,4.618,4.637,4.656,4.676,4.696,4.756,4.797,4.861,4.904,4.97,5.015,5.107,5.154,5.227,5.252,5.277,5.302,5.302,5.302,5.328,5.328,5.302,5.302,5.302,5.302,5.277,5.277,5.252,5.252,5.227,5.227,5.227,5.227,5.227,5.252,5.252,5.252,5.252,5.277,5.277,5.277,5.277,5.302,5.302,5.302,5.302,5.302,5.302,5.302,5.302,5.302,5.302,5.302,5.328,5.328,5.354,5.354,5.38,5.38,5.406,5.432,5.432,5.432,5.432,5.432,5.432,5.432,5.432,5.432,5.406,5.406,5.406,5.38,5.354,5.354,5.354,5.354,0,0,0,0,0,0,0,0,0,0,0,0,0,1.901,1.898,1.898,1.894,1.898,1.894,1.891,1.891,1.882,1.878,1.872,1.872,1.869,1.866,1.866,1.866,1.863,1.863,1.859,1.853,1.841,1.829,1.817,1.802,1.785,1.773,1.762,1.754,1.745,1.745,1.745,1.745,1.748,1.748,1.748,1.748,1.748,1.745,1.745,1.742,1.74,1.74,1.737,1.734,1.732,1.732,1.732,1.732,1.732,1.732,1.732,1.732,1.732,1.732,1.732,1.732,1.732,1.732,1.732,1.732,1.729,1.729,1.729,1.729,1.729,1.726,1.726,1.726,1.726,1.729,1.729,1.729,1.729,1.729,1.729,1.729,1.729,1.726,1.726,1.729,1.729,1.732,1.732,1.732,1.732,1.734,1.734,1.734,1.732,1.732,1.734,1.734,1.734,1.734,1.734,1.734,1.734,1.74,1.74,1.74,1.742,1.742,1.748,1.748,1.751,1.751,1.751,1.751,1.751,1.754,1.754,1.756,1.756,1.759,1.759,1.762,1.762,1.765,1.767,1.77,1.773,1.776,1.776,1.779,1.782,1.782,1.782,1.782,1.785,1.787,1.787,1.79,1.79,1.793,1.793,1.793,1.793,1.793,1.793,1.793,1.793,1.79,1.79,1.787,1.787,1.787,1.787,1.787,1.787,1.787,1.787,1.787,1.79,1.79,1.79,1.79,1.787,1.79,1.79,1.79,1.787,1.787,1.79,1.79,1.793,1.793,1.793,1.793,1.796,1.796,1.799,1.799,1.802,1.805,1.808,1.814,1.817,1.82,1.823,1.826,1.829,1.835,1.838,1.844,1.847,1.85,1.853,1.863,1.866,1.872,1.875,1.875,1.878,1.882,1.882,1.885,1.885,1.888,1.891,1.894,1.894,1.898,1.898,1.898,1.898,1.898,1.894,1.891,1.891,1.888,1.882,1.875,1.869,1.863,0,0,0,0,0,0,4.97,4.925,4.925,4.882,4.861,4.839,4.818,4.797,4.777,4.756,4.736,4.716,4.696,4.676,4.656,4.656,4.637,4.618,4.598,4.598,4.579,4.542,4.523,4.505,4.487,4.451,4.433,4.415,4.398,4.38,4.363,4.363,4.346,4.329,4.312,4.295,4.262,4.246,4.214,4.182,4.151,4.135,4.104,4.074,4.045,4.015,3.986,3.972,3.944,3.916,3.902,3.875,3.861,3.848,3.835,3.821,3.808,3.795,3.782,3.769,3.757,3.744,3.719,3.706,3.694,3.682,3.67,3.657,3.645,3.633,3.622,3.598,3.586,3.575,3.552,3.529,3.507,3.485,3.452,3.431,3.41,3.389,3.368,3.348,3.328,3.308,3.298,3.279,3.269,3.259,3.24,3.231,3.222,3.212,3.203,3.203,3.194,3.194,3.185,3.185,3.175,3.166,3.157,3.148,3.139,3.122,3.104,3.087,3.078,3.061,3.053,3.036,3.028
0,0,0,0,0,0,0,0,4.925,4.882,4.839,4.818,4.797,4.777,4.716,4.676,4.656,4.618,4.579,4.561,4.561,4.542,4.542,4.542,4.542,4.561,4.561,4.579,4.579,4.579,4.579,4.561,4.542,4.523,4.505,4.487,4.469,4.451,4.433,4.415,4.398,4.398,4.38,4.38,4.38,4.38,4.38,4.38,4.38,4.38,4.38,4.38,4.38,4.38,4.38,4.363,4.363,4.363,4.363,4.38,4.38,4.363,4.363,4.38,4.38,4.398,4.398,4.398,4.398,4.398,4.415,4.415,4.415,4.415,4.415,4.415,4.415,4.415,4.433,4.433,4.433,4.433,4.433,4.433,4.433,4.433,4.433,4.451,4.469,4.469,4.487,4.505,4.523,4.542,4.579,4.598,4.618,4.618,4.637,4.656,4.676,4.716,4.756,4.797,4.861,4.904,4.97,5.037,5.107,5.179,5.227,5.277,5.302,5.328,5.328,5.354,5.354,5.354,5.354,5.354,5.354,5.328,5.302,5.302,5.277,5.277,5.277,5.252,5.252,5.252,5.252,5.252,5.252,5.252,5.277,5.277,5.277,5.302,5.302,5.302,5.302,5.302,5.302,5.302,5.328,5.328,5.328,5.302,5.302,5.328,5.328,5.328,5.354,5.38,5.38,5.406,5.432,5.432,5.459,5.459,5.459,5.486,5.486,5.459,5.459,5.459,5.432,5.406,5.406,5.38,5.38,5.354,5.354,5.354,5.354,5.354,5.354,0,0,0,0,0,0,0,0,0,0,0,0,0,1.907,1.914,1.914,1.911,1.907,1.907,1.901,1.901,1.898,1.894,1.891,1.888,1.891,1.888,1.885,1.882,1.872,1.859,1.847,1.832,1.817,1.799,1.787,1.773,1.762,1.756,1.754,1.754,1.754,1.754,1.754,1.754,1.754,1.754,1.751,1.748,1.748,1.745,1.742,1.74,1.74,1.737,1.734,1.734,1.734,1.734,1.732,1.734,1.734,1.734,1.734,1.734,1.732,1.732,1.732,1.732,1.732,1.729,1.729,1.729,1.729,1.726,1.726,1.726,1.726,1.726,1.729,1.729,1.729,1.729,1.732,1.732,1.732,1.729,1.726,1.726,1.729,1.729,1.732,1.732,1.732,1.732,1.734,1.734,1.734,1.732,1.734,1.734,1.737,1.737,1.734,1.734,1.734,1.737,1.74,1.742,1.742,1.742,1.745,1.751,1.751,1.754,1.751,1.754,1.754,1.754,1.756,1.756,1.759,1.759,1.762,1.765,1.765,1.767,1.767,1.77,1.77,1.773,1.776,1.779,1.782,1.782,1.782,1.782,1.785,1.787,1.787,1.79,1.79,1.793,1.793,1.796,1.796,1.796,1.796,1.796,1.796,1.796,1.796,1.796,1.793,1.79,1.79,1.79,1.79,1.79,1.79,1.793,1.796,1.796,1.796,1.796,1.799,1.799,1.799,1.799,1.799,1.799,1.802,1.802,1.802,1.805,1.805,1.805,1.802,1.805,1.805,1.808,1.808,1.811,1.814,1.817,1.82,1.826,1.829,1.832,1.835,1.838,1.844,1.847,1.853,1.853,1.859,1.863,1.869,1.872,1.878,1.882,1.882,1.885,1.888,1.891,1.891,1.894,1.894,1.898,1.901,1.904,1.904,1.904,1.904,1.904,1.904,1.901,1.898,1.894,1.891,1.891,1.882,1.878,0,0,0,0,5.037,5.015,4.992,4.97,4.947,4.925,4.904,4.861,4.861,4.839,4.818,4.777,4.756,4.736,4.716,4.696,4.676,4.676,4.656,4.637,4.618,4.618,4.598,4.579,4.561,4.542,4.505,4.487,4.469,4.451,4.415,4.398,4.398,4.38,4.363,4.346,4.329,4.312,4.295,4.262,4.246,4.214,4.182,4.166,4.135,4.104,4.074,4.045,4.015,3.986,3.972,3.944,3.93,3.902,3.888,3.861,3.848,3.848,3.835,3.808,3.795,3.782,3.769,3.757,3.744,3.719,3.706,3.694,3.67,3.657,3.645,3.633,3.622,3.61,3.598,3.575,3.563,3.541,3.518,3.496,3.474,3.452,3.431,3.41,3.389,3.368,3.348,3.328,3.308,3.298,3.279,3.269,3.259,3.24,3.231,3.222,3.212,3.203,3.203,3.194,3.194,3.185,3.185,3.175,3.166,3.157,3.148,3.139,3.122,3.113,3.096,3.078,3.061,3.053,3.036,3.028
0,0,0,0,0,0,0,0,0,4.861,4.839,4.818,4.777,4.756,4.716,4.676,4.656,4.618,4.579,4.579,4.561,4.561,4.542,4.542,4.561,4.561,4.561,4.579,4.579,4.561,4.561,4.542,4.523,4.505,4.487,4.469,4.469,4.451,4.433,4.415,4.398,4.398,4.398,4.38,4.38,4.38,4.38,4.38,4.38,4.38,4.38,4.38,4.38,4.38,4.363,4.363,4.363,4.363,4.363,4.363,4.363,4.363,4.363,4.363,4.363,4.363,4.38,4.38,4.38,4.398,4.398,4.415,4.415,4.415,4.415,4.433,4.433,4.433,4.433,4.433,4.433,4.433,4.433,4.433,4.433,4.451,4.451,4.451,4.469,4.487,4.505,4.505,4.542,4.561,4.579,4.598,4.618,4.637,4.656,4.676,4.676,4.696,4.756,4.797,4.861,4.925,4.97,5.037,5.107,5.179,5.252,5.302,5.328,5.354,5.38,5.38,5.406,5.406,5.38,5.38,5.354,5.354,5.328,5.328,5.302,5.302,5.277,5.277,5.277,5.252,5.277,5.277,5.277,5.277,5.277,5.277,5.302,5.302,5.302,5.302,5.302,5.302,5.328,5.328,5.328,5.328,5.328,5.328,5.328,5.328,5.354,5.354,5.38,5.38,5.406,5.432,5.459,5.459,5.486,5.486,5.513,5.513,5.513,5.513,5.486,5.486,5.459,5.432,5.406,5.38,5.38,5.354,5.354,5.354,5.354,5.354,5.354,5.38,0,0,0,0,0,0,0,0,0,0,0,0,1.921,1.927,1.931,1.931,1.927,1.927,1.924,1.921,1.924,1.921,1.917,1.911,1.914,1.907,1.904,1.904,1.894,1.882,1.866,1.85,1.835,1.814,1.802,1.785,1.773,1.765,1.762,1.762,1.762,1.762,1.762,1.759,1.759,1.759,1.756,1.756,1.754,1.751,1.748,1.745,1.742,1.74,1.74,1.737,1.737,1.737,1.737,1.737,1.737,1.737,1.737,1.737,1.734,1.734,1.734,1.734,1.732,1.732,1.729,1.729,1.729,1.729,1.726,1.726,1.726,1.729,1.732,1.732,1.732,1.732,1.732,1.732,1.732,1.729,1.729,1.729,1.729,1.732,1.732,1.732,1.732,1.732,1.734,1.734,1.734,1.734,1.734,1.737,1.74,1.74,1.737,1.74,1.74,1.742,1.742,1.745,1.745,1.748,1.751,1.754,1.754,1.756,1.756,1.756,1.759,1.759,1.759,1.762,1.765,1.767,1.767,1.767,1.77,1.773,1.773,1.773,1.773,1.779,1.779,1.782,1.785,1.785,1.787,1.787,1.787,1.793,1.793,1.796,1.796,1.799,1.799,1.799,1.802,1.802,1.802,1.802,1.802,1.802,1.802,1.799,1.799,1.799,1.796,1.796,1.796,1.796,1.796,1.799,1.802,1.805,1.805,1.805,1.808,1.808,1.808,1.811,1.811,1.811,1.811,1.811,1.814,1.814,1.814,1.814,1.814,1.814,1.814,1.817,1.817,1.82,1.823,1.826,1.829,1.835,1.838,1.841,1.844,1.847,1.853,1.856,1.859,1.863,1.866,1.869,1.875,1.878,1.882,1.885,1.888,1.891,1.894,1.898,1.898,1.901,1.901,1.904,1.907,1.907,1.907,1.911,1.907,1.904,1.904,1.904,1.901,1.898,1.894,1.891,0,0,0,0,0,5.037,5.037,5.015,4.992,4.97,4.947,4.925,4.904,4.882,4.861,4.839,4.818,4.777,4.756,4.736,4.736,4.716,4.696,4.676,4.656,4.637,4.637,4.618,4.598,4.579,4.561,4.542,4.523,4.505,4.469,4.451,4.433,4.415,4.398,4.38,4.363,4.346,4.329,4.312,4.295,4.279,4.246,4.23,4.198,4.166,4.135,4.104,4.089,4.045,4.015,3.986,3.972,3.944,3.93,3.902,3.888,3.875,3.861,3.848,3.835,3.808,3.795,3.782,3.769,3.757,3.744,3.719,3.706,3.682,3.67,3.657,3.645,3.633,3.61,3.598,3.586,3.575,3.552,3.529,3.518,3.496,3.474,3.452,3.431,3.399,3.389,3.368,3.348,3.328,3.308,3.298,3.279,3.269,3.259,3.24,3.231,3.222,3.212,3.203,3.203,3.194,3.194,3.185,3.185,3.175,3.166,3.157,3.148,3.139,3.122,3.113,3.096,3.078,3.061,3.053,3.036,3.028
0,0,0,0,0,0,0,0,0,0,4.839,4.797,4.777,4.756,4.716,4.696,4.676,4.637,4.598,4.598,4.579,4.579,4.561,4.561,4.561,4.561,4.561,4.561,4.542,4.542,4.542,4.523,4.523,4.505,4.487,4.469,4.451,4.451,4.433,4.433,4.415,4.415,4.415,4.398,4.398,4.398,4.398,4.398,4.398,4.398,4.38,4.38,4.38,4.38,4.363,4.363,4.363,4.363,4.363,4.346,4.346,4.346,4.346,4.346,4.363,4.363,4.363,4.363,4.38,4.38,4.398,4.415,4.415,4.415,4.415,4.433,4.433,4.451,4.451,4.451,4.451,4.451,4.451,4.451,4.451,4.451,4.469,4.469,4.487,4.505,4.505,4.523,4.542,4.561,4.598,4.598,4.618,4.637,4.656,4.676,4.696,4.716,4.736,4.797,4.839,4.904,4.97,5.037,5.107,5.203,5.277,5.328,5.354,5.38,5.406,5.406,5.432,5.406,5.406,5.406,5.38,5.38,5.354,5.354,5.328,5.302,5.302,5.277,5.277,5.277,5.277,5.277,5.277,5.277,5.302,5.302,5.302,5.328,5.328,5.328,5.328,5.328,5.328,5.328,5.354,5.354,5.328,5.328,5.328,5.354,5.38,5.38,5.406,5.406,5.432,5.459,5.486,5.486,5.513,5.541,5.541,5.541,5.541,5.541,5.513,5.513,5.486,5.459,5.432,5.406,5.38,5.354,5.354,5.354,5.354,5.354,5.354,5.354,5.38,5.406,5.406,0,0,0,0,0,0,0,0,0,0,0,0,1.941,1.941,1.941,1.941,1.934,1.937,1.941,1.937,1.931,1.934,1.927,1.927,1.924,1.917,1.907,1.891,1.875,1.856,1.838,1.823,1.802,1.787,1.776,1.77,1.767,1.767,1.765,1.765,1.765,1.762,1.762,1.759,1.759,1.756,1.754,1.751,1.751,1.748,1.745,1.745,1.742,1.742,1.742,1.742,1.742,1.742,1.742,1.74,1.74,1.74,1.737,1.734,1.734,1.732,1.732,1.729,1.732,1.732,1.729,1.729,1.729,1.729,1.732,1.732,1.732,1.732,1.732,1.734,1.734,1.732,1.732,1.732,1.732,1.732,1.732,1.734,1.734,1.734,1.737,1.737,1.737,1.737,1.737,1.737,1.74,1.742,1.742,1.742,1.745,1.745,1.748,1.751,1.751,1.751,1.754,1.756,1.756,1.756,1.759,1.759,1.762,1.765,1.765,1.767,1.77,1.77,1.773,1.776,1.776,1.776,1.779,1.779,1.782,1.782,1.785,1.785,1.787,1.79,1.79,1.793,1.793,1.796,1.799,1.799,1.802,1.805,1.805,1.805,1.808,1.808,1.805,1.805,1.805,1.805,1.805,1.805,1.805,1.805,1.802,1.802,1.802,1.802,1.802,1.805,1.805,1.811,1.814,1.814,1.817,1.817,1.82,1.82,1.82,1.823,1.82,1.823,1.823,1.823,1.826,1.826,1.826,1.823,1.823,1.826,1.826,1.826,1.829,1.832,1.835,1.838,1.841,1.847,1.85,1.853,1.856,1.859,1.866,1.869,1.869,1.872,1.875,1.882,1.885,1.888,1.891,1.891,1.894,1.898,1.904,1.904,1.907,1.907,1.911,1.914,1.914,1.914,1.914,1.911,1.911,1.911,1.907,1.904,1.901,1.898,0,0,0,0,0,0,5.06,5.037,5.015,5.015,4.992,4.97,4.947,4.925,4.882,4.861,4.839,4.818,4.797,4.756,4.756,4.736,4.716,4.696,4.676,4.656,4.637,4.637,4.618,4.598,4.579,4.561,4.542,4.523,4.505,4.487,4.469,4.433,4.433,4.415,4.398,4.38,4.363,4.346,4.329,4.312,4.279,4.262,4.23,4.198,4.166,4.135,4.104,4.089,4.059,4.03,4.001,3.972,3.944,3.93,3.916,3.888,3.875,3.861,3.848,3.835,3.821,3.795,3.782,3.769,3.757,3.731,3.719,3.694,3.682,3.67,3.657,3.633,3.622,3.61,3.598,3.586,3.563,3.552,3.529,3.507,3.485,3.463,3.442,3.42,3.399,3.379,3.368,3.348,3.328,3.308,3.298,3.279,3.269,3.259,3.24,3.231,3.222,3.212,3.203,3.203,3.194,3.194,3.185,3.185,3.175,3.166,3.157,3.148,3.139,3.122,3.104,3.096,3.078,3.061,3.053,3.036,3.028
0,0,0,0,0,0,0,0,0,0,4.818,4.777,4.756,4.756,4.736,4.696,4.676,4.637,4.618,4.598,4.598,4.598,4.579,4.579,4.561,4.561,4.561,4.542,4.542,4.523,4.523,4.523,4.505,4.487,4.469,4.469,4.469,4.451,4.433,4.433,4.433,4.433,4.415,4.415,4.415,4.415,4.415,4.415,4.398,4.398,4.398,4.398,4.38,4.38,4.363,4.363,4.363,4.346,4.346,4.346,4.329,4.329,4.329,4.329,4.346,4.346,4.363,4.363,4.363,4.38,4.38,4.398,4.415,4.415,4.415,4.433,4.433,4.451,4.451,4.451,4.451,4.451,4.451,4.469,4.469,4.469,4.469,4.487,4.505,4.505,4.523,4.542,4.561,4.579,4.598,4.618,4.637,4.637,4.656,4.676,4.696,4.716,4.736,4.777,4.861,4.904,4.97,5.037,5.131,5.203,5.277,5.354,5.406,5.406,5.432,5.459,5.459,5.459,5.432,5.432,5.406,5.406,5.38,5.354,5.354,5.328,5.328,5.328,5.302,5.302,5.302,5.302,5.302,5.302,5.302,5.302,5.328,5.328,5.354,5.354,5.354,5.354,5.354,5.354,5.354,5.354,5.354,5.354,5.354,5.38,5.38,5.406,5.432,5.432,5.459,5.486,5.513,5.541,5.541,5.569,5.569,5.569,5.569,5.569,5.541,5.513,5.486,5.459,5.432,5.406,5.38,5.354,5.354,5.354,5.354,5.354,5.38,5.38,5.406,5.406,5.406,5.432,5.432,0,0,0,0,0,0,0,0,0,0,0,0,1.948,1.944,1.948,1.948,1.948,1.944,1.948,1.948,1.948,1.944,1.941,1.934,1.927,1.917,1.904,1.882,1.863,1.847,1.829,1.808,1.796,1.787,1.782,1.776,1.773,1.77,1.767,1.767,1.765,1.765,1.762,1.762,1.759,1.759,1.756,1.754,1.751,1.751,1.751,1.751,1.748,1.748,1.748,1.748,1.748,1.745,1.742,1.742,1.74,1.737,1.737,1.734,1.734,1.732,1.732,1.734,1.732,1.732,1.734,1.734,1.737,1.737,1.737,1.737,1.737,1.74,1.74,1.737,1.734,1.734,1.737,1.737,1.74,1.737,1.74,1.74,1.74,1.74,1.742,1.74,1.74,1.742,1.745,1.745,1.748,1.748,1.751,1.754,1.756,1.756,1.756,1.759,1.759,1.762,1.762,1.765,1.765,1.767,1.767,1.77,1.77,1.773,1.776,1.779,1.779,1.782,1.782,1.782,1.785,1.787,1.787,1.787,1.79,1.793,1.796,1.796,1.799,1.799,1.799,1.802,1.805,1.805,1.808,1.811,1.811,1.811,1.814,1.814,1.814,1.811,1.811,1.811,1.811,1.811,1.811,1.811,1.811,1.808,1.811,1.811,1.811,1.814,1.817,1.82,1.823,1.826,1.826,1.829,1.832,1.832,1.832,1.835,1.832,1.832,1.835,1.835,1.835,1.835,1.835,1.832,1.835,1.835,1.835,1.835,1.838,1.841,1.844,1.847,1.85,1.853,1.856,1.863,1.866,1.869,1.872,1.875,1.878,1.882,1.885,1.888,1.891,1.894,1.898,1.901,1.901,1.904,1.907,1.914,1.914,1.917,1.917,1.921,1.921,1.921,1.917,1.917,1.917,1.914,1.911,1.907,1.907,0,0,0,0,0,0,5.084,5.06,5.037,5.037,5.015,4.992,4.97,4.947,4.925,4.882,4.861,4.839,4.818,4.797,4.756,4.756,4.736,4.716,4.696,4.676,4.656,4.637,4.618,4.618,4.598,4.579,4.561,4.542,4.523,4.505,4.487,4.469,4.451,4.451,4.433,4.415,4.398,4.38,4.346,4.329,4.312,4.279,4.262,4.23,4.198,4.166,4.135,4.104,4.089,4.059,4.03,4.001,3.972,3.958,3.93,3.916,3.888,3.875,3.861,3.848,3.835,3.808,3.795,3.782,3.769,3.744,3.731,3.706,3.694,3.682,3.657,3.645,3.633,3.622,3.61,3.586,3.575,3.563,3.541,3.518,3.507,3.485,3.463,3.442,3.42,3.399,3.379,3.358,3.348,3.328,3.308,3.298,3.279,3.269,3.259,3.24,3.231,3.222,3.212,3.203,3.203,3.194,3.194,3.185,3.185,3.175,3.166,3.157,3.148,3.139,3.122,3.104,3.096,3.078,3.061,3.053,3.036,3.028
0,0,0,0,0,0,0,0,0,0,4.797,4.777,4.756,4.736,4.736,4.696,4.676,4.656,4.637,4.618,4.618,4.598,4.598,4.579,4.579,4.561,4.561,4.542,4.542,4.523,4.523,4.523,4.505,4.487,4.469,4.469,4.469,4.451,4.451,4.451,4.451,4.451,4.451,4.451,4.451,4.451,4.433,4.433,4.433,4.415,4.398,4.398,4.398,4.38,4.363,4.363,4.363,4.346,4.346,4.329,4.329,4.329,4.329,4.329,4.329,4.346,4.346,4.346,4.346,4.363,4.38,4.38,4.398,4.415,4.415,4.433,4.451,4.451,4.451,4.451,4.451,4.451,4.469,4.469,4.469,4.487,4.487,4.487,4.505,4.523,4.542,4.542,4.561,4.579,4.598,4.618,4.637,4.656,4.656,4.676,4.696,4.716,4.736,4.777,4.839,4.904,4.97,5.037,5.131,5.227,5.302,5.38,5.432,5.459,5.459,5.459,5.459,5.459,5.459,5.459,5.432,5.432,5.406,5.38,5.38,5.354,5.354,5.328,5.328,5.328,5.328,5.328,5.328,5.328,5.328,5.328,5.328,5.354,5.354,5.354,5.38,5.38,5.38,5.38,5.38,5.38,5.38,5.38,5.38,5.406,5.406,5.432,5.459,5.459,5.486,5.513,5.541,5.569,5.569,5.569,5.597,5.597,5.597,5.569,5.569,5.541,5.513,5.486,5.459,5.432,5.406,5.38,5.354,5.354,5.354,5.38,5.38,5.38,5.38,5.406,5.432,5.432,5.459,5.459,5.486,5.513,0,0,0,0,0,0,0,0,0,0,0,0,1.958,1.958,1.958,1.958,1.961,1.961,1.958,1.955,1.951,1.941,1.934,1.924,1.904,1.888,1.875,1.85,1.832,1.817,1.805,1.793,1.785,1.782,1.776,1.773,1.77,1.77,1.77,1.77,1.767,1.767,1.767,1.765,1.762,1.759,1.759,1.756,1.756,1.756,1.754,1.754,1.754,1.751,1.751,1.748,1.745,1.745,1.742,1.74,1.737,1.737,1.737,1.737,1.737,1.737,1.737,1.74,1.74,1.742,1.742,1.742,1.742,1.742,1.742,1.742,1.742,1.742,1.742,1.742,1.745,1.745,1.745,1.745,1.745,1.745,1.745,1.745,1.745,1.745,1.748,1.751,1.754,1.756,1.756,1.759,1.759,1.762,1.765,1.765,1.765,1.765,1.767,1.77,1.77,1.773,1.773,1.776,1.779,1.782,1.782,1.785,1.785,1.787,1.79,1.79,1.79,1.793,1.796,1.796,1.796,1.799,1.799,1.802,1.805,1.805,1.808,1.808,1.811,1.814,1.814,1.814,1.814,1.817,1.817,1.817,1.82,1.82,1.817,1.817,1.817,1.817,1.817,1.817,1.817,1.817,1.817,1.817,1.817,1.82,1.82,1.823,1.826,1.832,1.835,1.835,1.838,1.841,1.841,1.844,1.844,1.844,1.841,1.844,1.844,1.844,1.844,1.844,1.844,1.841,1.841,1.841,1.844,1.844,1.847,1.85,1.853,1.859,1.863,1.866,1.869,1.875,1.878,1.882,1.885,1.885,1.888,1.891,1.894,1.898,1.901,1.904,1.907,1.911,1.914,1.917,1.921,1.921,1.924,1.927,1.927,1.927,1.927,1.927,1.924,1.924,1.917,1.914,1.911,0,0,0,0,0,0,5.084,5.084,5.06,5.037,5.037,5.015,4.992,4.97,4.947,4.925,4.904,4.882,4.839,4.818,4.797,4.756,4.756,4.736,4.716,4.696,4.676,4.656,4.637,4.618,4.618,4.598,4.579,4.561,4.542,4.523,4.505,4.487,4.487,4.469,4.451,4.433,4.415,4.398,4.38,4.363,4.329,4.312,4.279,4.262,4.23,4.198,4.166,4.135,4.104,4.089,4.059,4.03,4.001,3.972,3.958,3.93,3.916,3.888,3.875,3.861,3.848,3.821,3.808,3.795,3.782,3.757,3.744,3.731,3.706,3.694,3.67,3.657,3.645,3.633,3.622,3.598,3.586,3.575,3.563,3.541,3.518,3.496,3.485,3.463,3.442,3.42,3.399,3.379,3.358,3.348,3.328,3.318,3.298,3.288,3.269,3.259,3.24,3.231,3.222,3.212,3.203,3.203,3.194,3.185,3.185,3.175,3.166,3.166,3.157,3.148,3.131,3.122,3.104,3.087,3.078,3.061,3.053,3.036,3.028
0,0,0,0,0,0,0,0,0,0,4.797,4.756,4.736,4.736,4.716,4.696,4.676,4.656,4.637,4.637,4.618,4.598,4.598,4.579,4.579,4.579,4.561,4.542,4.523,4.523,4.523,4.523,4.505,4.487,4.469,4.487,4.469,4.469,4.469,4.469,4.469,4.469,4.469,4.469,4.469,4.469,4.469,4.451,4.451,4.433,4.433,4.415,4.398,4.398,4.38,4.363,4.363,4.346,4.346,4.329,4.329,4.329,4.329,4.329,4.329,4.329,4.329,4.329,4.346,4.346,4.363,4.38,4.38,4.415,4.415,4.433,4.451,4.451,4.451,4.451,4.451,4.469,4.469,4.469,4.487,4.487,4.487,4.505,4.523,4.542,4.542,4.561,4.579,4.579,4.598,4.618,4.637,4.656,4.656,4.676,4.676,4.696,4.736,4.756,4.818,4.904,4.97,5.06,5.131,5.227,5.302,5.38,5.459,5.459,5.486,5.486,5.486,5.486,5.486,5.459,5.459,5.432,5.406,5.406,5.38,5.38,5.354,5.354,5.354,5.354,5.354,5.354,5.354,5.354,5.354,5.354,5.354,5.38,5.38,5.38,5.406,5.406,5.406,5.406,5.406,5.406,5.406,5.406,5.406,5.432,5.432,5.459,5.459,5.486,5.513,5.541,5.569,5.569,5.597,5.597,5.625,5.625,5.625,5.597,5.597,5.569,5.513,5.513,5.486,5.459,5.406,5.38,5.38,5.38,5.38,5.38,5.406,5.406,5.406,5.432,5.432,5.459,5.459,5.486,5.486,5.541,5.541,5.569,0,0,0,0,0,0,0,0,0,0,0,0,0,0,1.972,1.972,1.968,1.965,1.958,1.955,1.944,1.937,1.924,1.907,1.891,1.872,1.853,1.835,1.82,1.808,1.796,1.787,1.782,1.776,1.776,1.776,1.773,1.773,1.773,1.773,1.773,1.77,1.77,1.767,1.765,1.765,1.762,1.762,1.762,1.759,1.759,1.756,1.756,1.754,1.751,1.748,1.745,1.745,1.742,1.74,1.74,1.74,1.742,1.742,1.742,1.745,1.745,1.748,1.748,1.748,1.748,1.748,1.748,1.748,1.748,1.748,1.748,1.748,1.748,1.751,1.751,1.754,1.751,1.754,1.751,1.751,1.751,1.751,1.754,1.756,1.759,1.762,1.765,1.767,1.77,1.773,1.773,1.773,1.773,1.773,1.776,1.776,1.779,1.779,1.782,1.785,1.787,1.79,1.793,1.796,1.793,1.796,1.799,1.799,1.799,1.802,1.805,1.805,1.805,1.805,1.808,1.808,1.811,1.814,1.814,1.814,1.817,1.82,1.82,1.82,1.823,1.823,1.823,1.826,1.826,1.823,1.823,1.823,1.823,1.823,1.823,1.823,1.823,1.823,1.823,1.823,1.823,1.826,1.829,1.829,1.835,1.838,1.841,1.847,1.847,1.853,1.853,1.853,1.856,1.853,1.853,1.853,1.853,1.853,1.853,1.853,1.853,1.85,1.85,1.85,1.85,1.853,1.853,1.856,1.863,1.866,1.869,1.872,1.878,1.882,1.885,1.885,1.891,1.894,1.898,1.901,1.904,1.907,1.907,1.911,1.914,1.917,1.921,1.924,1.924,1.927,1.931,1.931,1.934,1.931,1.931,1.931,1.931,1.924,1.921,1.917,0,0,0,0,5.154,5.131,5.131,5.107,5.084,5.084,5.06,5.037,5.015,4.992,4.97,4.947,4.925,4.904,4.882,4.839,4.818,4.777,4.756,4.736,4.736,4.696,4.676,4.656,4.637,4.637,4.618,4.598,4.598,4.579,4.561,4.542,4.523,4.505,4.505,4.487,4.469,4.451,4.433,4.415,4.398,4.38,4.363,4.329,4.312,4.279,4.262,4.23,4.198,4.166,4.135,4.104,4.089,4.059,4.03,4.001,3.972,3.958,3.93,3.916,3.888,3.875,3.861,3.848,3.821,3.808,3.795,3.769,3.757,3.744,3.719,3.706,3.694,3.67,3.657,3.645,3.633,3.622,3.598,3.586,3.575,3.563,3.541,3.518,3.496,3.485,3.463,3.442,3.42,3.399,3.379,3.358,3.348,3.328,3.318,3.298,3.288,3.269,3.259,3.25,3.24,3.222,3.212,3.212,3.203,3.194,3.185,3.185,3.175,3.166,3.157,3.157,3.148,3.131,3.113,3.104,3.087,3.078,3.061,3.053,3.036,3.028
0,0,0,0,0,0,0,0,0,0,4.818,4.777,4.756,4.736,4.736,4.716,4.696,4.656,4.637,4.637,4.637,4.637,4.618,4.598,4.598,4.598,4.579,4.561,4.542,4.542,4.523,4.523,4.505,4.487,4.487,4.487,4.469,4.487,4.487,4.487,4.487,4.487,4.487,4.487,4.487,4.487,4.487,4.487,4.469,4.451,4.451,4.433,4.433,4.415,4.398,4.38,4.363,4.363,4.363,4.346,4.329,4.329,4.329,4.329,4.329,4.329,4.329,4.329,4.346,4.346,4.363,4.38,4.38,4.398,4.415,4.433,4.451,4.451,4.469,4.469,4.469,4.469,4.469,4.487,4.487,4.505,4.505,4.505,4.523,4.542,4.561,4.561,4.579,4.579,4.598,4.618,4.637,4.637,4.656,4.656,4.676,4.696,4.716,4.736,4.818,4.882,4.97,5.037,5.131,5.227,5.328,5.406,5.459,5.486,5.486,5.513,5.513,5.513,5.513,5.486,5.486,5.459,5.432,5.432,5.406,5.406,5.38,5.38,5.354,5.354,5.38,5.38,5.38,5.38,5.38,5.38,5.38,5.38,5.406,5.406,5.406,5.406,5.432,5.432,5.432,5.432,5.432,5.432,5.432,5.432,5.459,5.486,5.486,5.513,5.513,5.541,5.569,5.597,5.625,5.625,5.625,5.625,5.625,5.597,5.597,5.569,5.541,5.513,5.486,5.459,5.432,5.406,5.406,5.38,5.406,5.406,5.406,5.406,5.432,5.432,5.459,5.459,5.486,5.486,5.513,5.541,5.569,5.597,5.625,5.625,0,0,0,0,0,0,0,0,0,0,0,0,0,1.982,1.979,1.975,1.968,1.965,1.958,1.948,1.941,1.924,1.911,1.894,1.872,0,1.838,1.823,1.808,1.796,1.787,1.782,1.779,1.779,1.779,1.779,1.779,1.779,1.779,1.779,1.776,1.773,1.773,1.77,1.77,1.77,1.765,1.765,1.765,1.762,1.759,1.759,1.756,1.754,1.751,1.751,1.748,1.745,1.745,1.745,1.748,1.748,1.748,1.751,1.751,1.751,1.754,1.754,1.754,1.751,1.751,1.754,1.751,1.751,1.754,1.754,1.756,1.756,1.756,1.759,1.759,1.759,1.759,1.759,1.759,1.759,1.762,1.765,1.767,1.77,1.773,1.776,1.782,1.782,1.785,1.785,1.785,1.785,1.785,1.787,1.79,1.79,1.793,1.796,1.799,1.799,1.802,1.805,1.805,1.805,1.808,1.808,1.808,1.811,1.811,1.814,1.814,1.814,1.817,1.817,1.82,1.82,1.82,1.82,1.823,1.823,1.826,1.826,1.829,1.829,1.829,1.832,1.832,1.829,1.829,1.829,1.829,1.829,1.829,1.832,1.832,1.832,1.832,1.832,1.832,1.832,1.835,1.838,1.844,1.847,1.853,1.856,1.856,1.863,1.863,1.866,1.866,1.866,1.866,1.863,1.866,1.866,1.863,1.863,1.859,1.859,1.856,1.856,1.856,1.859,1.863,1.863,1.869,1.872,1.875,1.882,1.885,1.888,1.891,1.894,1.898,1.901,1.904,1.911,1.911,1.914,1.917,1.921,1.924,1.924,1.927,1.931,1.934,1.934,1.934,1.937,1.937,1.937,1.937,1.937,1.934,1.927,1.921,1.921,0,0,0,5.179,5.179,5.154,5.131,5.131,5.107,5.084,5.06,5.06,5.015,5.015,4.97,4.947,4.925,4.904,4.861,4.839,4.818,4.777,4.756,4.736,4.716,4.696,4.676,4.656,4.637,4.618,4.618,4.598,4.579,4.561,4.561,4.542,4.523,4.505,4.487,4.487,4.469,4.451,4.433,4.433,4.415,4.38,4.363,4.329,4.312,4.279,4.262,4.23,4.182,4.151,4.135,4.104,4.074,4.045,4.03,4.001,3.972,3.958,3.93,3.916,3.888,3.875,3.861,3.835,3.821,3.795,3.782,3.769,3.744,3.731,3.719,3.694,3.682,3.67,3.657,3.645,3.622,3.61,3.598,3.586,3.575,3.552,3.541,3.518,3.496,3.485,3.463,3.442,3.42,3.399,3.379,3.358,3.348,3.328,3.318,3.298,3.288,3.279,3.259,3.25,3.24,3.231,3.222,3.212,3.203,3.194,3.194,3.185,3.175,3.166,3.157,3.157,3.139,3.131,3.122,3.104,3.087,3.078,3.061,3.053,3.036,3.028
0,0,0,0,0,0,0,0,0,0,4.839,4.797,4.777,4.756,4.756,4.736,4.696,4.676,4.656,4.637,4.637,4.637,4.637,4.618,4.618,4.618,4.598,4.579,4.561,4.542,4.542,4.523,4.505,4.505,4.487,4.487,4.487,4.487,4.487,4.487,4.505,4.505,4.505,4.505,4.505,4.505,4.487,4.487,4.487,4.469,4.469,4.451,4.451,4.433,4.415,4.398,4.398,4.38,4.363,4.363,4.346,4.346,4.329,4.329,4.329,4.329,4.329,4.329,4.346,4.346,4.363,4.38,4.38,4.398,4.415,4.433,4.451,4.451,4.469,4.469,4.469,4.469,4.487,4.487,4.505,4.505,4.523,4.523,4.542,4.542,4.561,4.561,4.579,4.579,4.598,4.618,4.637,4.637,4.637,4.656,4.656,4.676,4.676,4.736,4.777,4.861,4.947,5.037,5.131,5.227,5.328,5.406,5.486,5.486,5.513,5.513,5.513,5.513,5.486,5.486,5.459,5.459,5.459,5.432,5.432,5.432,5.406,5.38,5.38,5.38,5.38,5.38,5.38,5.38,5.38,5.38,5.406,5.406,5.406,5.406,5.406,5.432,5.432,5.432,5.459,5.459,5.459,5.459,5.459,5.459,5.486,5.486,5.513,5.513,5.541,5.569,5.597,5.597,5.597,5.625,5.625,5.625,5.625,5.625,5.597,5.569,5.541,5.513,5.513,5.486,5.459,5.432,5.432,5.432,5.432,5.432,5.432,5.432,5.459,5.459,5.486,5.486,5.513,5.513,5.541,5.541,5.569,5.597,5.597,5.625,5.654,0,0,0,0,0,0,0,0,0,0,0,0,0,1.986,1.982,1.979,1.972,1.965,1.955,1.944,1.934,1.921,1.904,1.885,1.866,1.853,1.835,1.817,1.802,1.793,1.785,1.782,1.782,1.785,1.785,1.785,1.785,1.787,1.785,1.782,1.779,1.779,1.776,1.773,1.773,1.77,1.77,1.767,1.767,1.765,1.762,1.762,1.759,1.756,1.754,1.754,1.751,1.751,1.751,1.751,1.754,1.754,1.754,1.754,1.756,1.756,1.756,1.756,1.756,1.756,1.756,1.756,1.756,1.759,1.759,1.762,1.762,1.762,1.762,1.765,1.765,1.765,1.765,1.765,1.765,1.77,1.773,1.776,1.779,1.785,1.787,1.79,1.793,1.796,1.796,1.796,1.796,1.796,1.799,1.799,1.802,1.802,1.805,1.808,1.811,1.814,1.814,1.814,1.814,1.817,1.817,1.817,1.817,1.82,1.82,1.823,1.823,1.826,1.826,1.826,1.826,1.826,1.826,1.829,1.829,1.832,1.832,1.835,1.835,1.835,1.838,1.838,1.838,1.835,1.835,1.835,1.835,1.835,1.838,1.838,1.838,1.838,1.838,1.841,1.841,1.844,1.847,1.853,1.856,1.859,1.863,1.869,1.872,1.872,1.875,1.875,1.875,1.875,1.878,1.878,1.878,1.878,1.875,1.875,1.872,1.869,1.869,1.869,1.869,1.869,1.872,1.875,1.878,1.882,1.888,1.891,1.898,1.901,1.904,1.907,1.911,1.914,1.917,1.921,1.924,1.927,1.927,1.931,1.931,1.934,1.937,1.937,1.941,1.941,1.941,1.941,1.937,1.941,1.941,1.934,1.931,1.927,0,0,0,0,5.203,5.179,5.179,5.154,5.131,5.107,5.084,5.084,5.037,5.037,4.992,4.97,4.947,4.904,4.882,4.861,4.839,4.797,4.777,4.756,4.736,4.716,4.696,4.676,4.656,4.637,4.618,4.598,4.598,4.579,4.561,4.542,4.542,4.523,4.505,4.487,4.469,4.469,4.451,4.433,4.415,4.398,4.38,4.363,4.329,4.312,4.279,4.246,4.214,4.182,4.151,4.135,4.104,4.074,4.045,4.03,4.001,3.972,3.958,3.93,3.916,3.888,3.875,3.848,3.835,3.808,3.795,3.782,3.757,3.744,3.719,3.706,3.694,3.682,3.67,3.657,3.633,3.622,3.61,3.598,3.586,3.575,3.563,3.541,3.518,3.507,3.485,3.463,3.442,3.42,3.399,3.379,3.368,3.348,3.338,3.318,3.308,3.288,3.279,3.269,3.259,3.24,3.231,3.222,3.212,3.203,3.203,3.194,3.185,3.175,3.166,3.166,3.157,3.139,3.131,3.122,3.104,3.096,3.078,3.061,3.053,3.036,3.028
0,0,0,0,0,0,0,0,0,0,0,4.797,4.777,4.756,4.756,4.736,4.696,4.676,4.656,4.637,4.656,4.637,4.637,4.618,4.618,4.618,4.598,4.579,4.579,4.561,4.542,4.542,4.523,4.505,4.505,4.487,4.487,4.505,4.487,4.487,4.505,4.505,4.505,4.505,4.505,4.505,4.505,4.487,4.487,4.487,4.469,4.469,4.469,4.451,4.433,4.415,4.398,4.398,4.38,4.363,4.363,4.363,4.346,4.346,4.346,4.346,4.329,4.329,4.346,4.346,4.363,4.38,4.38,4.398,4.415,4.433,4.451,4.451,4.469,4.469,4.487,4.487,4.487,4.487,4.505,4.505,4.523,4.523,4.542,4.561,4.561,4.561,4.579,4.579,4.598,4.618,4.618,4.637,4.637,4.637,4.656,4.656,4.676,4.716,4.777,4.839,4.925,5.015,5.131,5.227,5.328,5.406,5.486,5.513,5.513,5.513,5.513,5.513,5.513,5.486,5.486,5.459,5.459,5.459,5.432,5.432,5.432,5.406,5.406,5.406,5.406,5.406,5.406,5.406,5.406,5.406,5.406,5.432,5.432,5.432,5.432,5.459,5.459,5.459,5.486,5.459,5.459,5.459,5.486,5.486,5.513,5.513,5.513,5.513,5.541,5.569,5.569,5.597,5.597,5.597,5.625,5.625,5.625,5.625,5.597,5.569,5.569,5.541,5.513,5.486,5.486,5.459,5.459,5.459,5.459,5.459,5.459,5.459,5.486,5.486,5.513,5.513,5.513,5.541,5.541,5.569,5.597,5.597,5.625,5.625,5.654,5.683,0,0,0,0,0,0,0,0,0,0,0,0,1.997,1.99,1.982,1.979,1.972,1.965,1.955,1.941,1.924,1.911,1.891,1.875,1.856,1.838,1.82,1.805,1.793,1.787,1.785,1.785,1.787,1.787,1.787,1.787,1.79,1.787,1.787,1.785,1.782,1.779,1.779,1.776,1.773,1.773,1.773,1.77,1.767,1.765,1.762,1.762,1.759,1.759,1.756,1.754,1.754,1.754,1.754,1.754,1.754,1.756,1.756,1.759,1.759,1.759,1.759,1.756,1.756,1.756,1.759,1.759,1.762,1.762,1.765,1.767,1.767,1.77,1.77,1.77,1.77,1.77,1.77,1.773,1.776,1.782,1.785,1.79,1.796,1.799,1.802,1.805,1.808,1.808,1.808,1.808,1.808,1.811,1.811,1.811,1.814,1.817,1.817,1.82,1.823,1.826,1.826,1.826,1.829,1.829,1.829,1.829,1.829,1.829,1.829,1.829,1.832,1.832,1.835,1.835,1.835,1.832,1.835,1.835,1.835,1.838,1.838,1.838,1.838,1.841,1.841,1.841,1.838,1.838,1.841,1.841,1.841,1.844,1.844,1.844,1.847,1.847,1.847,1.85,1.853,1.856,1.863,1.866,1.869,1.872,1.875,1.878,1.882,1.885,1.888,1.888,1.888,1.888,1.888,1.891,1.891,1.891,1.888,1.885,1.885,1.882,1.882,1.878,1.882,1.882,1.885,1.888,1.894,1.898,1.901,1.904,1.907,1.911,1.917,1.921,1.924,1.927,1.927,1.931,1.934,1.934,1.934,1.937,1.937,1.941,1.941,1.944,1.948,1.944,1.944,1.944,1.944,1.944,1.937,1.937,0,0,0,0,0,5.227,5.203,5.179,5.154,5.154,5.131,5.107,5.084,5.06,5.037,4.992,4.97,4.925,4.904,4.882,4.839,4.818,4.797,4.777,4.756,4.736,4.716,4.696,4.676,4.656,4.637,4.618,4.598,4.579,4.579,4.561,4.542,4.523,4.523,4.505,4.487,4.469,4.451,4.451,4.433,4.415,4.398,4.38,4.346,4.329,4.295,4.279,4.246,4.214,4.182,4.151,4.135,4.104,4.074,4.045,4.03,4.001,3.972,3.958,3.93,3.902,3.888,3.861,3.848,3.821,3.808,3.782,3.769,3.757,3.731,3.719,3.706,3.682,3.67,3.657,3.645,3.633,3.622,3.61,3.598,3.586,3.575,3.563,3.541,3.529,3.507,3.485,3.463,3.442,3.42,3.41,3.389,3.368,3.358,3.338,3.328,3.308,3.298,3.288,3.279,3.269,3.25,3.24,3.231,3.222,3.212,3.203,3.203,3.194,3.185,3.175,3.166,3.157,3.139,3.131,3.122,3.104,3.096,3.078,3.061,3.053,3.045,3.028
0,0,0,0,0,0,0,0,0,0,0,4.818,4.777,4.756,0,4.716,4.696,4.676,4.656,4.637,4.656,4.637,4.637,4.637,4.637,4.637,4.618,4.598,4.579,4.579,4.561,4.561,4.523,4.523,4.505,4.505,4.505,4.505,4.505,4.505,4.505,4.505,4.505,4.505,4.505,4.505,4.505,4.505,4.487,4.487,4.487,4.469,4.469,4.451,4.433,4.433,4.415,4.398,4.398,4.38,4.363,4.363,4.363,4.363,4.346,4.346,4.346,4.329,4.346,4.346,4.363,4.38,4.38,4.398,4.415,4.433,4.451,4.469,4.469,4.487,4.487,4.487,4.487,4.487,4.505,4.523,4.523,4.523,4.542,4.561,4.561,4.561,4.579,4.579,4.598,4.598,4.618,4.618,4.618,4.637,4.637,4.637,4.656,4.696,4.756,4.839,4.925,5.015,5.107,5.227,5.328,5.432,5.486,5.486,5.486,5.513,5.513,5.513,5.486,5.486,5.486,5.486,5.459,5.459,5.432,5.432,5.432,5.432,5.432,5.406,5.406,5.406,5.432,5.432,5.432,5.432,5.432,5.432,5.459,5.459,5.459,5.459,5.486,5.486,5.486,5.486,5.486,5.486,5.486,5.513,5.513,5.513,5.513,5.541,5.541,5.569,5.597,5.597,5.597,5.597,5.597,5.597,5.597,5.597,5.569,5.569,5.541,5.541,5.541,5.513,5.486,5.486,5.486,5.486,5.486,5.486,5.486,5.486,5.513,5.513,5.513,5.541,5.541,5.541,5.569,5.569,5.597,5.625,5.625,5.654,5.654,5.683,5.712,0,0,0,0,0,0,0,0,0,0,0,0,0,1.993,1.986,1.979,1.972,1.961,1.948,1.934,1.914,1.898,1.878,1.863,1.841,1.82,1.805,1.796,1.787,1.782,1.785,1.785,1.785,1.787,1.787,1.787,1.787,1.787,1.785,1.782,1.782,1.779,1.779,1.776,1.776,1.773,1.773,1.77,1.767,1.765,1.765,1.762,1.759,1.759,1.759,1.756,1.759,1.759,1.756,1.759,1.759,1.759,1.759,1.759,1.759,1.759,1.759,1.759,1.759,1.759,1.759,1.765,1.767,1.767,1.77,1.773,1.773,1.773,1.776,1.776,1.776,1.776,1.779,1.782,1.787,1.793,1.799,1.805,1.808,1.814,1.817,1.82,1.82,1.82,1.82,1.82,1.82,1.823,1.823,1.826,1.826,1.829,1.829,1.832,1.835,1.835,1.835,1.838,1.838,1.838,1.838,1.838,1.838,1.838,1.838,1.838,1.838,1.838,1.838,1.838,1.838,1.838,1.838,1.838,1.841,1.841,1.841,1.841,1.844,1.844,1.844,1.841,1.844,1.844,1.844,1.844,1.847,1.85,1.85,1.853,1.853,1.856,1.859,1.859,1.863,1.869,1.872,1.875,1.878,1.885,1.888,1.888,1.891,1.891,1.894,1.894,1.894,1.898,1.898,1.898,1.898,1.898,1.894,1.894,1.891,1.891,1.891,1.888,1.891,1.894,1.898,1.901,1.904,1.911,1.914,1.917,1.921,1.924,1.927,1.931,1.934,1.937,1.937,1.937,1.941,1.941,1.941,1.944,1.948,1.944,1.948,1.948,1.951,1.948,1.948,1.948,1.948,1.948,0,0,0,0,0,5.277,5.252,5.227,5.203,5.179,5.154,5.131,5.107,5.084,5.06,5.015,4.992,4.947,4.925,4.904,4.861,4.839,4.818,4.777,4.756,4.756,4.736,4.716,4.696,4.676,4.656,4.637,4.618,4.598,4.579,4.561,4.542,4.542,4.523,4.505,4.487,4.469,4.469,4.451,4.451,4.433,4.415,4.398,4.363,4.346,4.329,4.295,4.262,4.23,4.198,4.166,4.151,4.12,4.089,4.074,4.045,4.03,4.001,3.972,3.958,3.93,3.902,3.888,3.861,3.835,3.821,3.795,3.782,3.757,3.744,3.731,3.706,3.694,3.682,3.67,3.657,3.645,3.633,3.622,3.61,3.598,3.586,3.575,3.563,3.552,3.529,3.507,3.485,3.463,3.452,3.431,3.41,3.399,3.379,3.358,3.348,3.338,3.318,3.308,3.298,3.288,3.269,3.259,3.25,3.24,3.231,3.222,3.212,3.203,3.194,3.185,3.175,3.166,3.157,3.139,3.131,3.113,3.104,3.096,3.078,3.061,3.053,3.045,3.028
0,0,0,0,0,0,0,0,0,0,4.861,4.818,4.777,4.756,4.756,4.716,4.696,4.676,4.656,4.637,4.637,4.637,4.637,4.637,4.637,4.637,4.618,4.598,4.579,4.579,4.561,4.561,4.542,4.523,4.505,4.505,4.487,4.505,4.505,4.505,4.505,4.505,4.505,4.505,4.505,4.505,4.505,4.505,4.505,4.487,4.487,4.487,4.469,4.469,4.451,4.433,4.433,4.415,4.398,4.398,4.38,4.363,4.363,4.363,4.346,4.346,4.346,4.329,4.346,4.346,4.363,4.38,4.38,4.398,4.415,4.433,4.451,4.469,4.469,4.487,4.487,4.487,4.487,4.487,4.505,4.523,4.523,4.523,4.542,4.542,4.561,4.561,4.561,4.561,4.579,4.598,4.598,4.598,4.618,4.618,4.637,4.637,4.656,4.696,4.756,4.839,4.925,5.015,5.107,5.227,5.328,5.406,5.459,5.486,5.486,5.486,5.486,5.486,5.486,5.486,5.486,5.486,5.486,5.459,5.459,5.432,5.432,5.432,5.432,5.432,5.432,5.432,5.432,5.432,5.459,5.459,5.459,5.459,5.486,5.486,5.486,5.486,5.486,5.486,5.513,5.513,5.513,5.513,5.513,5.513,5.513,5.513,5.541,5.541,5.541,5.569,5.569,5.597,5.597,5.597,5.597,5.597,5.597,5.597,5.569,5.569,5.541,5.541,5.541,5.513,5.513,5.513,5.513,5.513,5.513,5.513,5.513,5.513,5.541,5.541,5.541,5.569,5.569,5.569,5.569,5.597,5.625,5.625,5.625,5.654,5.654,5.654,0,0,0,0,0,0,0,0,0,0,0,0,0,0,1.997,1.99,1.982,1.975,1.965,1.955,1.937,1.924,1.907,1.888,1.872,1.847,1.823,1.808,1.796,1.787,1.785,1.785,1.785,1.785,1.787,1.79,1.79,1.79,1.787,1.785,1.782,1.785,1.779,1.779,1.779,1.776,1.773,1.773,1.77,1.767,1.765,1.765,1.765,1.762,1.762,1.759,1.759,1.759,1.759,1.759,1.759,1.759,1.762,1.762,1.762,1.762,1.762,1.759,1.759,1.759,1.759,1.762,1.767,1.767,1.77,1.773,1.776,1.776,1.779,1.779,1.779,1.779,1.782,1.785,1.79,1.793,1.799,1.808,1.814,1.817,1.82,1.826,1.829,1.829,1.829,1.829,1.832,1.832,1.832,1.832,1.835,1.838,1.838,1.838,1.841,1.841,1.844,1.844,1.844,1.844,1.844,1.844,1.844,1.844,1.844,1.844,1.844,1.844,1.844,1.844,1.844,1.844,1.841,1.841,1.841,1.841,1.844,1.844,1.844,1.844,1.847,1.844,1.844,1.844,1.847,1.847,1.847,1.85,1.853,1.853,1.856,1.856,1.859,1.863,1.866,1.869,1.875,1.878,1.885,1.885,1.888,1.891,1.894,1.891,1.894,1.898,1.898,1.898,1.901,1.904,1.904,1.904,1.907,1.904,1.901,1.904,1.901,1.904,1.901,1.901,1.904,1.907,1.911,1.911,1.917,1.921,1.924,1.927,1.931,1.934,1.937,1.941,1.941,1.944,1.944,1.944,1.948,1.948,1.948,1.951,1.951,1.951,1.955,1.951,1.955,1.951,1.955,1.955,0,0,0,0,0,5.354,5.302,5.277,5.252,5.227,5.203,5.179,5.154,5.131,5.084,5.06,5.037,4.992,4.97,4.925,4.882,4.861,4.839,4.797,4.777,4.756,4.736,4.736,4.716,4.696,4.676,4.656,4.637,4.618,4.598,4.579,4.561,4.542,4.523,4.505,4.505,4.487,4.469,4.451,4.433,4.433,4.415,4.398,4.38,4.363,4.346,4.312,4.279,4.262,4.23,4.198,4.166,4.151,4.12,4.089,4.059,4.045,4.03,4.001,3.972,3.944,3.916,3.902,3.875,3.848,3.835,3.808,3.795,3.769,3.757,3.731,3.719,3.706,3.694,3.682,3.67,3.657,3.645,3.633,3.622,3.61,3.61,3.598,3.586,3.563,3.552,3.529,3.518,3.496,3.474,3.452,3.431,3.42,3.399,3.389,3.368,3.358,3.338,3.328,3.318,3.308,3.288,3.279,3.269,3.259,3.24,3.231,3.222,3.222,3.212,3.194,3.185,3.175,3.166,3.157,3.148,3.131,3.113,3.104,3.087,3.078,3.07,3.053,3.045,3.028
0,0,0,0,0,0,0,0,0,4.861,4.839,4.818,4.777,4.756,4.736,4.716,4.676,4.656,4.637,4.618,4.637,4.637,4.618,4.618,4.637,4.637,4.618,4.598,4.598,4.579,4.561,4.561,4.542,4.523,4.505,4.505,4.487,4.505,4.487,4.487,4.505,4.505,4.505,4.505,4.505,4.505,4.505,4.505,4.505,4.505,4.505,4.487,4.487,4.469,4.469,4.451,4.433,4.415,4.415,4.398,4.38,4.38,4.363,4.363,4.346,4.346,4.346,4.329,4.346,4.346,4.363,4.38,4.38,4.398,4.415,4.433,4.451,4.469,4.469,4.487,4.487,4.487,4.487,4.487,4.505,4.505,4.523,4.523,4.523,4.542,4.542,4.542,4.542,4.561,4.561,4.579,4.579,4.598,4.598,4.618,4.637,4.637,4.656,4.696,4.777,4.861,4.947,5.037,5.131,5.227,5.328,5.406,5.459,5.459,5.486,5.486,5.486,5.486,5.486,5.486,5.459,5.486,5.486,5.459,5.459,5.459,5.459,5.459,5.459,5.459,5.459,5.459,5.459,5.459,5.459,5.459,5.486,5.486,5.486,5.486,5.486,5.486,5.513,5.513,5.541,5.541,5.541,5.513,5.513,5.513,5.541,5.541,5.541,5.541,5.541,5.569,5.569,5.569,5.569,5.597,5.597,5.597,5.569,5.569,5.569,5.541,5.541,5.541,5.541,5.541,5.513,5.513,5.541,5.541,5.541,5.569,5.569,5.569,5.569,5.569,5.569,5.569,5.569,5.597,5.597,5.597,5.625,5.625,5.654,5.654,5.654,5.683,5.712,5.712,5.683,0,0,0,0,0,0,0,0,0,0,0,0,0,0,0,0,0,0,1.927,1.911,1.894,1.872,1.853,1.832,1.814,1.799,1.787,1.785,1.787,1.787,1.787,1.79,1.79,1.79,1.793,1.79,1.785,1.785,1.785,1.782,1.779,1.779,1.779,1.773,1.773,1.77,1.767,1.767,1.765,1.765,1.765,1.765,1.765,1.765,1.765,1.762,1.762,1.762,1.762,1.762,1.762,1.762,1.762,1.762,1.762,1.762,1.762,1.762,1.762,1.767,1.77,1.77,1.773,1.779,1.779,1.779,1.782,1.782,1.785,1.787,1.79,1.796,1.802,1.808,1.814,1.82,1.826,1.829,1.832,1.838,1.838,1.838,1.838,1.841,1.841,1.841,1.841,1.844,1.844,1.844,1.844,1.847,1.847,1.847,1.847,1.847,1.85,1.85,1.85,1.85,1.85,1.85,1.85,1.85,1.85,1.847,1.847,1.847,1.844,1.844,1.844,1.844,1.844,1.844,1.844,1.844,1.844,1.844,1.844,1.844,1.844,1.847,1.85,1.85,1.85,1.853,1.856,1.859,1.859,1.863,1.866,1.869,1.872,1.878,1.882,1.885,1.888,1.891,1.891,1.894,1.894,1.901,1.901,1.901,1.904,1.907,1.907,1.911,1.914,1.911,1.911,1.911,1.911,1.911,1.907,1.907,1.911,1.911,1.914,1.917,1.917,1.921,1.927,1.931,1.934,1.937,1.941,1.944,1.948,1.948,1.948,1.951,1.951,1.951,1.951,1.951,1.951,1.955,1.955,1.955,1.958,1.958,1.958,0,0,0,0,0,5.486,5.432,5.38,5.354,5.302,5.277,5.252,5.203,5.179,5.154,5.131,5.084,5.06,5.037,4.992,4.97,4.925,4.882,4.861,4.839,4.797,4.777,4.756,4.756,4.736,4.716,4.696,4.676,4.656,4.637,4.618,4.598,4.579,4.561,4.542,4.523,4.505,4.487,4.469,4.469,4.451,4.433,4.415,4.398,4.38,4.363,4.346,4.329,4.295,4.262,4.246,4.214,4.198,4.166,4.151,4.12,4.089,4.059,4.045,4.015,4.001,3.972,3.944,3.916,3.888,3.861,3.848,3.821,3.795,3.782,3.769,3.744,3.731,3.719,3.694,3.682,3.67,3.657,3.657,3.645,3.633,3.622,3.61,3.61,3.598,3.586,3.563,3.552,3.529,3.518,3.496,3.474,3.463,3.442,3.42,3.41,3.389,3.379,3.358,3.348,3.338,3.318,3.308,3.298,3.288,3.269,3.259,3.25,3.24,3.231,3.222,3.212,3.203,3.194,3.185,3.166,3.157,3.148,3.131,3.122,3.104,3.096,3.078,3.07,3.053,3.045,3.036
0,0,0,0,0,0,0,0,4.861,4.839,4.818,4.797,4.756,4.716,4.696,4.676,4.656,4.637,4.618,4.598,4.618,4.618,4.618,4.618,4.618,4.618,4.618,4.598,4.579,4.561,4.561,4.542,4.523,4.505,4.505,4.505,4.487,4.487,4.487,4.487,4.505,4.487,4.487,4.505,4.505,4.505,4.505,4.505,4.505,4.505,4.505,4.487,4.487,4.487,4.469,4.451,4.451,4.433,4.415,4.398,4.38,4.38,4.38,4.363,4.363,4.346,4.346,4.346,4.346,4.346,4.363,4.38,4.38,4.398,4.415,4.433,4.451,4.451,4.469,4.469,4.469,4.487,4.487,4.487,4.505,4.505,4.505,4.505,4.523,4.523,4.523,4.523,4.542,4.542,4.542,4.561,4.579,4.579,4.598,4.618,4.618,4.637,4.676,4.716,4.797,4.882,4.947,5.037,5.131,5.227,5.328,5.406,5.432,5.459,5.459,5.459,5.459,5.459,5.486,5.459,5.459,5.459,5.459,5.486,5.459,5.459,5.459,5.459,5.459,5.459,5.486,5.486,5.486,5.486,5.513,5.513,5.513,5.513,5.513,5.513,5.513,5.541,5.541,5.541,5.541,5.541,5.541,5.541,5.541,5.541,5.541,5.541,5.541,5.541,5.541,5.569,5.569,5.569,5.569,5.569,5.569,5.569,5.569,5.569,5.569,5.541,5.541,5.541,5.541,5.541,5.541,5.541,5.541,5.569,5.569,5.597,5.597,5.597,5.597,5.597,5.597,5.597,5.597,5.597,5.625,5.625,5.654,5.654,5.654,5.683,5.683,5.683,5.683,5.712,5.712,5.712,5.712,0,5.683,5.683,0,0,0,0,0,0,0,0,0,0,0,0,0,0,0,1.891,1.869,1.853,1.829,1.811,1.799,1.79,1.787,1.787,1.787,1.787,1.787,1.79,1.793,1.79,1.79,1.787,1.785,1.785,1.785,1.782,1.779,1.776,1.773,1.77,1.77,1.767,1.767,1.767,1.767,1.767,1.765,1.765,1.765,1.765,1.765,1.762,1.762,1.765,1.765,1.765,1.762,1.762,1.762,1.762,1.762,1.762,1.762,1.765,1.767,1.77,1.773,1.776,1.776,1.782,1.785,1.785,1.79,1.79,1.796,1.802,1.808,1.811,1.817,1.823,1.829,1.835,1.838,1.841,1.844,1.847,1.85,1.847,1.85,1.85,1.85,1.85,1.853,1.853,1.853,1.853,1.853,1.853,1.853,1.853,1.853,1.853,1.853,1.853,1.853,1.853,1.853,1.853,1.85,1.85,1.85,1.85,1.85,1.847,1.847,1.847,1.847,1.847,1.844,1.847,1.844,1.844,1.847,1.847,1.847,1.847,1.85,1.85,1.853,1.853,1.856,1.856,1.863,1.863,1.866,1.869,1.875,1.878,1.882,1.888,1.891,1.891,1.891,1.894,1.894,1.898,1.901,1.901,1.904,1.907,1.911,1.911,1.917,1.917,1.921,1.917,1.917,1.917,1.917,1.917,1.914,1.914,1.917,1.917,1.921,1.924,1.931,1.934,1.937,1.941,1.944,1.948,1.951,1.951,1.955,1.951,1.955,1.955,1.955,1.955,1.955,1.955,1.955,1.958,1.958,1.958,0,0,0,0,5.597,5.569,5.513,5.459,5.432,5.38,5.354,5.328,5.277,5.252,5.227,5.203,5.179,5.131,5.107,5.06,5.015,4.992,4.947,4.925,4.882,4.861,4.839,4.797,4.777,4.756,4.756,4.736,4.716,4.696,4.676,4.676,4.656,4.637,4.618,4.598,4.561,4.542,4.523,4.505,4.469,4.451,4.451,4.433,4.415,4.398,4.38,4.363,4.346,4.329,4.312,4.279,4.262,4.246,4.214,4.198,4.166,4.151,4.12,4.089,4.059,4.045,4.03,4.001,3.972,3.944,3.916,3.888,3.861,3.835,3.808,3.795,3.769,3.757,3.744,3.719,3.706,3.694,3.682,3.67,3.657,3.645,3.645,3.633,3.622,3.61,3.61,3.598,3.586,3.575,3.552,3.541,3.518,3.507,3.485,3.463,3.442,3.431,3.41,3.399,3.379,3.368,3.348,3.338,3.328,3.318,3.298,3.288,3.279,3.269,3.259,3.25,3.24,3.231,3.222,3.212,3.203,3.185,3.175,3.166,3.148,3.139,3.122,3.113,3.096,3.078,3.07,3.053,3.045,3.036
0,0,0,0,0,0,0,0,4.861,4.839,4.818,4.777,4.756,4.716,4.696,4.676,4.637,4.618,4.598,4.598,4.598,4.598,4.598,4.598,4.598,4.598,4.579,4.579,4.561,4.561,4.542,4.523,4.523,4.505,4.505,4.487,4.487,4.487,4.487,4.487,4.487,4.487,4.487,4.487,4.505,4.505,4.505,4.505,4.505,4.505,4.505,4.487,4.487,4.487,4.469,4.451,4.451,4.433,4.415,4.415,4.398,4.38,4.38,4.38,4.363,4.346,4.346,4.346,4.346,4.363,4.363,4.38,4.38,4.398,4.415,4.433,4.451,4.451,4.469,4.469,4.469,4.487,4.487,4.487,4.487,4.505,4.505,4.505,4.505,4.505,4.505,4.523,4.523,4.523,4.542,4.542,4.561,4.579,4.598,4.618,4.637,4.656,4.696,4.756,4.818,4.882,4.97,5.06,5.154,5.227,5.328,5.406,5.432,5.432,5.459,5.459,5.459,5.459,5.459,5.459,5.459,5.459,5.459,5.459,5.486,5.486,5.486,5.486,5.486,5.486,5.486,5.486,5.513,5.513,5.513,5.513,5.541,5.541,5.541,5.541,5.541,5.569,5.569,5.569,5.569,5.569,5.569,5.569,5.569,5.569,5.569,5.569,5.541,5.541,5.569,5.569,5.569,5.569,5.541,5.541,5.541,5.541,5.541,5.541,5.541,5.541,5.541,5.541,5.541,5.541,5.569,5.569,5.569,5.597,5.597,5.625,5.625,5.625,5.625,5.654,5.625,5.625,5.625,5.625,5.654,5.654,5.654,5.654,5.654,5.683,5.683,5.683,5.683,5.683,5.683,5.712,5.683,5.683,5.683,5.683,5.683,5.683,0,0,0,0,0,0,0,0,0,0,0,0,0,0,1.863,1.844,1.826,1.808,1.796,1.79,1.787,1.787,1.785,1.787,1.787,1.79,1.79,1.79,1.787,1.785,1.782,1.782,1.779,1.776,1.773,1.773,1.773,1.767,1.767,1.765,1.762,1.765,1.762,1.765,1.765,1.765,1.765,1.765,1.765,1.762,1.762,1.762,1.762,1.762,1.762,1.762,1.762,1.762,1.762,1.762,1.762,1.765,1.767,1.77,1.773,1.776,1.782,1.785,1.787,1.793,1.796,1.799,1.805,1.811,1.817,1.823,1.829,1.832,1.838,1.841,1.847,1.847,1.853,1.853,1.856,1.856,1.859,1.859,1.859,1.859,1.859,1.859,1.859,1.859,1.859,1.859,1.856,1.856,1.856,1.856,1.856,1.856,1.856,1.856,1.856,1.853,1.856,1.856,1.853,1.853,1.853,1.85,1.85,1.847,1.847,1.847,1.847,1.847,1.847,1.847,1.847,1.847,1.847,1.85,1.85,1.85,1.856,1.856,1.859,1.859,1.863,1.866,1.872,1.872,1.875,1.882,1.885,1.891,1.891,1.894,1.894,1.898,1.898,1.901,1.904,1.907,1.907,1.911,1.914,1.917,1.921,1.924,1.927,1.924,1.924,1.924,1.921,1.924,1.921,1.921,1.924,1.924,1.931,1.934,1.937,1.941,1.944,1.948,1.951,1.955,1.958,1.958,1.958,1.958,1.958,1.958,1.958,1.958,1.958,0,0,0,0,0,5.683,5.654,5.625,5.597,5.569,5.541,5.513,5.486,5.432,5.406,5.38,5.354,5.302,5.277,5.252,5.227,5.179,5.154,5.107,5.06,5.037,4.992,4.947,4.904,4.882,4.861,4.839,4.818,4.777,4.777,4.756,4.756,4.736,4.716,4.696,4.676,4.656,4.637,4.618,4.598,4.579,4.542,4.523,4.505,4.469,4.451,4.433,4.415,4.398,4.398,4.38,4.363,4.346,4.329,4.295,4.279,4.262,4.23,4.214,4.182,4.166,4.135,4.104,4.089,4.059,4.045,4.03,4.001,3.972,3.93,3.916,3.888,3.861,3.835,3.808,3.782,3.769,3.744,3.731,3.719,3.706,3.694,3.682,3.67,3.657,3.645,3.633,3.633,3.622,3.61,3.61,3.598,3.586,3.575,3.552,3.541,3.529,3.507,3.485,3.474,3.452,3.431,3.42,3.399,3.389,3.368,3.358,3.348,3.328,3.318,3.308,3.298,3.288,3.279,3.269,3.25,3.25,3.24,3.231,3.222,3.203,3.194,3.185,3.166,3.148,3.139,3.122,3.113,3.096,3.087,3.07,3.053,3.045,3.036
0,0,0,0,0,0,0,0,4.861,4.839,4.818,4.777,4.756,4.716,4.696,4.656,4.637,4.618,4.598,4.579,4.579,4.579,4.579,4.579,4.579,4.579,4.561,4.561,4.542,4.542,4.523,4.523,4.505,4.505,4.505,4.487,4.487,4.487,4.487,4.487,4.487,4.487,4.487,4.487,4.487,4.505,4.505,4.487,4.487,4.505,4.505,4.487,4.487,4.487,4.487,4.469,4.451,4.451,4.433,4.415,4.398,4.398,4.38,4.38,4.363,4.363,4.346,4.363,4.363,4.363,4.363,4.38,4.38,4.398,4.415,4.433,4.433,4.451,4.451,4.451,4.469,4.469,4.469,4.487,4.487,4.487,4.487,4.487,4.487,4.487,4.505,4.505,4.487,4.505,4.523,4.542,4.561,4.579,4.598,4.618,4.637,4.676,4.716,4.777,4.839,4.925,4.992,5.084,5.154,5.252,5.328,5.38,5.406,5.432,5.432,5.459,5.459,5.459,5.459,5.459,5.459,5.459,5.459,5.459,5.486,5.486,5.486,5.486,5.486,5.513,5.513,5.513,5.541,5.541,5.541,5.541,5.541,5.569,5.569,5.569,5.569,5.597,5.597,5.597,5.597,5.597,5.597,5.597,5.597,5.597,5.597,5.569,5.569,5.569,5.569,5.569,5.569,5.569,5.541,5.541,5.541,5.541,5.541,5.541,5.541,5.541,5.541,5.541,5.541,5.541,5.541,5.569,5.597,5.625,5.625,5.625,5.654,5.654,5.654,5.654,5.654,5.654,5.654,5.654,5.654,5.654,5.654,5.654,5.654,5.654,5.683,5.683,5.654,5.654,5.683,5.683,5.654,5.654,5.683,5.683,5.683,5.683,5.683,0,0,0,0,5.654,0,0,0,0,0,0,0,0,0,0,0,0,0,0,1.785,1.787,1.785,1.785,1.787,1.787,1.787,1.787,1.785,1.779,1.779,1.779,1.776,1.773,1.77,1.77,1.767,1.765,1.762,1.762,1.762,1.762,1.762,1.762,1.762,1.762,1.762,1.762,1.762,1.762,1.759,1.759,1.759,1.759,1.759,1.759,1.762,1.759,1.759,1.759,1.759,1.762,1.767,1.77,1.773,1.776,1.785,1.787,1.796,1.799,1.805,1.805,1.814,1.82,1.823,1.832,1.838,1.841,1.844,1.85,1.853,1.856,1.859,1.859,1.863,1.866,1.866,1.869,1.869,1.866,1.866,1.866,1.863,1.863,1.863,1.863,1.863,1.859,1.863,1.859,1.859,1.859,1.859,1.859,1.859,1.859,1.859,1.856,1.856,1.856,1.856,1.853,1.85,1.85,1.85,1.847,1.847,1.847,1.847,1.847,1.847,1.85,1.85,1.85,1.85,1.853,1.853,1.853,1.859,1.863,1.863,1.869,1.872,1.875,1.878,1.885,1.888,1.894,1.894,1.894,1.898,1.898,1.898,1.901,1.907,1.911,1.907,1.914,1.917,1.921,1.927,1.931,1.931,1.931,1.931,1.931,1.934,1.931,1.927,1.931,1.931,1.934,0,0,0,0,0,0,0,0,0,0,0,0,0,0,0,0,0,0,0,0,5.712,5.712,5.683,5.654,5.625,5.597,5.569,5.513,5.486,5.486,5.432,5.406,5.38,5.354,5.328,5.277,5.252,5.203,5.179,5.154,5.107,5.06,5.037,4.992,4.947,4.925,4.882,4.861,4.839,4.818,4.797,4.777,4.777,4.756,4.736,4.716,4.696,4.696,4.676,4.656,4.618,4.598,4.579,4.542,4.523,4.505,4.469,4.451,4.433,4.415,4.398,4.38,4.363,4.346,4.329,4.312,4.279,4.262,4.246,4.214,4.198,4.182,4.151,4.135,4.104,4.089,4.059,4.045,4.015,3.986,3.958,3.93,3.902,3.888,3.861,3.835,3.808,3.782,3.757,3.744,3.731,3.719,3.706,3.694,3.682,3.67,3.657,3.645,3.633,3.633,3.622,3.61,3.61,3.598,3.586,3.575,3.552,3.541,3.529,3.507,3.485,3.474,3.452,3.442,3.42,3.41,3.389,3.379,3.358,3.348,3.338,3.328,3.308,3.298,3.288,3.279,3.269,3.259,3.25,3.24,3.231,3.222,3.212,3.203,3.185,3.175,3.157,3.139,3.122,3.113,3.096,3.087,3.07,3.053,3.045,3.036
0,0,0,0,0,0,0,0,4.861,4.839,4.797,4.777,4.756,4.716,4.676,4.637,4.618,4.598,4.579,4.579,4.561,4.561,4.561,4.542,4.542,4.542,4.542,4.542,4.523,4.523,4.523,4.505,4.505,4.487,4.487,4.487,4.487,4.487,4.469,4.487,4.487,4.469,4.469,4.487,4.487,4.487,4.487,4.487,4.487,4.505,4.505,4.487,4.487,4.487,4.469,4.469,4.451,4.451,4.433,4.415,4.415,4.398,4.38,4.38,4.38,4.363,4.346,4.363,4.363,4.363,4.363,4.38,4.38,4.398,4.415,4.415,4.415,4.433,4.433,4.451,4.451,4.451,4.451,4.469,4.469,4.469,4.469,4.469,4.469,4.469,4.469,4.469,4.469,4.469,4.487,4.523,4.542,4.561,4.598,4.618,4.656,4.696,4.756,4.818,4.882,4.97,5.037,5.107,5.179,5.252,5.328,5.38,5.406,5.406,5.432,5.432,5.459,5.459,5.459,5.459,5.459,5.459,5.459,5.486,5.486,5.486,5.486,5.486,5.486,5.513,5.513,5.541,5.541,5.541,5.569,5.569,5.569,5.569,5.597,5.597,5.597,5.625,5.625,5.625,5.625,5.625,5.625,5.625,5.625,5.625,5.625,5.597,5.597,5.597,5.597,5.597,5.569,5.569,5.569,5.569,5.569,5.569,5.569,5.569,5.541,5.541,5.541,5.541,5.569,5.569,5.569,5.569,5.597,5.625,5.654,5.654,5.683,5.683,5.683,5.683,5.683,5.683,5.683,5.683,5.683,5.683,5.683,5.654,5.654,5.654,5.654,5.654,5.654,5.654,5.683,5.654,5.654,5.654,5.654,5.683,5.712,5.683,5.683,5.683,5.654,5.654,5.654,5.654,5.625,5.625,0,0,0,0,0,0,0,0,0,0,0,0,0,0,0,0,1.782,1.785,0,1.782,1.779,1.776,0,1.773,1.773,1.767,1.767,1.765,0,1.759,1.759,1.759,1.759,1.759,1.759,1.759,1.762,1.762,1.762,1.759,1.759,1.759,1.756,1.756,1.759,1.759,1.756,1.759,1.759,1.759,1.759,1.759,1.762,1.765,1.767,1.773,1.776,1.782,1.787,1.793,1.799,1.805,1.811,1.814,1.82,1.826,1.832,1.838,1.841,1.847,1.85,1.853,1.859,1.859,1.863,1.866,1.869,1.869,1.872,1.869,1.869,1.869,1.869,1.869,1.869,1.869,1.866,1.866,1.866,1.866,1.863,1.866,1.863,1.863,1.863,1.863,1.863,1.863,1.859,1.859,1.859,1.859,1.856,1.856,1.853,1.85,1.85,1.85,1.85,1.85,1.847,1.847,1.85,1.85,1.85,1.85,1.85,1.853,1.853,1.853,1.856,1.859,1.863,1.869,1.872,1.875,1.882,1.885,1.888,1.891,1.898,1.898,1.898,1.901,1.901,1.901,1.907,1.911,1.911,1.921,1.924,1.927,1.934,1.937,1.941,1.941,1.944,0,0,0,0,0,0,0,0,0,0,0,0,0,0,0,0,0,0,0,0,0,0,0,0,0,0,5.712,5.683,5.683,5.654,5.625,5.597,5.569,5.541,5.513,5.486,5.459,5.432,5.406,5.38,5.354,5.302,5.277,5.252,5.227,5.179,5.131,5.107,5.06,5.037,4.992,4.947,4.925,4.904,4.861,4.839,4.818,4.797,4.797,4.777,4.777,4.756,4.736,4.716,4.696,4.676,4.656,4.637,4.598,4.579,4.542,4.523,4.487,4.469,4.451,4.433,4.415,4.38,4.363,4.346,4.329,4.312,4.295,4.262,4.246,4.23,4.214,4.182,4.166,4.151,4.12,4.104,4.089,4.059,4.045,4.015,3.986,3.958,3.93,3.902,3.875,3.848,3.821,3.808,3.782,3.757,3.744,3.731,3.719,3.706,3.694,3.682,3.67,3.657,3.645,3.633,3.633,3.622,3.61,3.61,3.598,3.586,3.575,3.552,3.541,3.529,3.507,3.496,3.474,3.452,3.442,3.42,3.41,3.389,3.379,3.358,3.348,3.338,3.328,3.318,3.298,3.288,3.279,3.269,3.259,3.259,3.25,3.24,3.231,3.222,3.212,3.194,3.185,3.166,3.148,3.131,3.113,3.096,3.087,3.07,3.053,3.045,3.036
0,0,0,0,0,0,0,0,4.861,4.839,4.797,4.777,4.736,4.696,4.676,4.618,4.598,4.579,4.561,4.542,4.542,4.542,4.523,4.523,4.523,4.523,4.523,4.523,4.505,4.505,4.505,4.487,4.487,4.487,4.487,4.469,4.469,4.487,4.469,4.469,4.469,4.469,4.469,4.487,4.487,4.487,4.487,4.487,4.505,4.505,4.505,4.505,4.487,4.487,4.469,4.469,4.469,4.451,4.451,4.433,4.415,4.415,4.398,4.38,4.38,4.363,4.363,4.363,4.363,4.363,4.363,4.363,4.363,4.38,4.38,4.398,4.398,4.398,4.398,4.415,4.415,4.415,4.415,4.433,4.433,4.433,4.433,4.433,4.433,4.433,4.433,4.433,4.451,4.451,4.469,4.487,4.523,4.561,4.579,4.637,4.676,4.716,4.797,4.861,4.925,4.992,5.084,5.154,5.227,5.277,5.328,5.38,5.406,5.406,5.406,5.432,5.432,5.459,5.459,5.459,5.459,5.459,5.486,5.486,5.486,5.486,5.486,5.513,5.513,5.513,5.541,5.541,5.541,5.569,5.569,5.569,5.597,5.597,5.625,5.625,5.625,5.625,5.654,5.654,5.654,5.654,5.654,5.625,5.625,5.625,5.625,5.625,5.597,5.597,5.597,5.597,5.597,5.569,5.569,5.569,5.569,5.569,5.569,5.569,5.569,5.541,5.541,5.541,5.541,5.541,5.569,5.597,5.597,5.625,5.654,5.683,5.683,5.683,5.683,5.712,5.712,5.712,5.683,5.712,5.712,5.683,5.683,5.683,5.683,5.654,5.654,5.654,5.654,5.654,5.654,5.683,5.654,5.683,5.683,5.683,5.712,5.712,5.712,5.712,5.683,5.654,5.654,5.683,5.654,5.625,5.625,5.597,5.569,5.569,0,0,0,0,0,0,0,0,0,0,0,0,0,0,0,0,0,0,0,0,0,0,0,0,0,0,1.754,1.754,1.754,1.754,1.756,1.756,1.756,1.759,1.759,1.759,1.756,1.754,1.754,1.756,1.756,1.756,1.756,1.759,1.759,1.759,1.759,1.762,1.765,1.767,1.773,1.779,1.782,1.785,1.793,1.799,1.805,1.814,1.82,1.826,1.829,1.835,1.841,1.844,1.85,1.853,1.856,1.859,1.863,1.866,1.869,1.869,1.872,1.875,1.875,1.875,1.875,1.872,1.872,1.872,1.869,1.869,1.869,1.869,1.866,1.866,1.866,1.866,1.866,1.863,1.863,1.863,1.863,1.863,1.863,1.863,1.859,1.859,1.856,1.856,1.856,1.853,1.853,1.85,1.85,1.85,1.85,1.85,1.85,1.847,1.85,1.85,1.85,1.853,1.853,1.853,1.856,1.859,1.863,1.869,1.875,1.878,1.882,1.885,1.888,1.894,1.894,1.894,1.898,1.898,1.901,1.901,1.907,1.911,1.914,1.914,1.924,1.924,0,0,0,0,0,0,0,0,0,0,0,0,0,0,0,0,0,0,0,0,0,0,0,0,0,0,0,0,0,5.742,5.712,5.683,5.654,5.654,5.625,5.597,5.597,5.541,5.541,5.513,5.486,5.459,5.432,5.406,5.38,5.354,5.328,5.277,5.252,5.203,5.179,5.131,5.107,5.06,5.015,4.992,4.947,4.925,4.904,4.882,4.861,4.839,4.818,4.797,4.797,4.777,4.756,4.736,4.716,4.696,4.676,4.656,4.637,4.598,4.579,4.542,4.523,4.487,4.469,4.451,4.415,4.398,4.38,4.363,4.346,4.329,4.295,4.279,4.262,4.246,4.23,4.198,4.182,4.166,4.135,4.12,4.104,4.074,4.059,4.03,4.015,3.986,3.958,3.93,3.902,3.875,3.848,3.821,3.795,3.782,3.757,3.744,3.731,3.719,3.706,3.694,3.682,3.67,3.657,3.657,3.645,3.633,3.622,3.61,3.61,3.598,3.586,3.575,3.552,3.541,3.529,3.507,3.496,3.474,3.463,3.442,3.431,3.41,3.389,3.379,3.368,3.348,3.338,3.328,3.318,3.308,3.298,3.288,3.279,3.269,3.259,3.25,3.25,3.24,3.231,3.212,3.203,3.185,3.175,3.157,3.139,3.122,3.104,3.087,3.07,3.061,3.045,3.036
0,0,0,0,0,0,0,0,4.861,4.818,4.777,4.756,4.736,4.676,4.656,4.598,4.579,4.561,4.542,4.523,4.505,4.505,4.505,4.505,4.487,4.487,4.505,4.505,4.487,4.487,4.487,4.487,4.487,4.487,4.487,4.469,4.469,4.469,4.469,4.469,4.469,4.469,4.469,4.469,4.487,4.487,4.487,4.487,4.487,4.505,4.505,4.505,4.487,4.487,4.487,4.469,4.469,4.451,4.451,4.433,4.415,4.415,4.398,4.38,4.38,4.38,4.363,4.363,4.346,4.346,4.346,4.346,4.346,4.346,4.363,4.363,4.363,4.363,4.363,4.363,4.363,4.38,4.38,4.38,4.398,4.398,4.398,4.398,4.38,4.398,4.398,4.398,4.38,4.398,4.415,4.433,4.469,4.505,4.523,4.561,4.618,4.656,4.716,4.797,4.882,4.947,5.037,5.107,5.179,5.252,5.302,5.328,5.354,5.354,5.38,5.38,5.38,5.406,5.432,5.432,5.432,5.432,5.459,5.486,5.486,5.486,5.486,5.513,5.513,5.541,5.541,5.569,5.569,5.569,5.569,5.597,5.597,5.625,5.625,5.654,5.625,5.625,5.625,5.625,5.625,5.625,5.625,5.625,5.625,5.597,5.597,5.569,5.569,5.541,5.541,5.541,5.541,5.541,5.541,5.541,5.513,5.513,5.513,5.513,5.513,5.486,5.486,5.513,5.513,5.541,5.541,5.569,5.597,5.625,5.654,5.654,5.683,5.683,5.683,5.683,5.683,5.683,5.683,5.654,5.654,5.654,5.654,5.654,5.654,5.654,5.654,5.654,5.654,5.654,5.654,5.654,5.654,5.683,5.654,5.683,5.683,5.654,5.712,5.683,5.654,5.683,5.654,5.654,5.654,5.625,5.597,5.597,5.569,5.541,5.513,5.486,0,0,0,0,0,0,0,0,0,0,0,0,0,0,0,0,0,0,0,0,0,0,0,0,0,0,1.754,1.754,1.754,1.759,1.759,1.759,1.756,1.756,1.756,1.756,1.756,1.756,1.756,1.759,1.765,1.77,1.776,1.779,1.779,1.779,1.782,1.787,1.793,1.793,1.796,1.802,1.808,1.814,1.82,1.829,1.832,1.835,1.841,1.844,1.847,1.853,1.856,1.859,1.863,1.863,1.866,1.869,1.872,1.872,1.875,1.875,1.875,1.875,1.875,1.872,1.872,1.872,1.872,1.869,1.869,1.869,1.869,1.866,1.866,1.866,1.866,1.866,1.866,1.866,1.866,1.866,1.866,1.863,1.863,1.859,1.859,1.859,1.859,1.853,1.853,1.853,1.853,1.85,1.85,1.847,1.847,1.847,1.85,1.85,1.85,1.85,1.853,1.853,1.856,1.859,1.866,1.872,1.875,1.878,1.885,1.888,1.891,1.894,1.898,1.898,1.898,1.898,1.898,0,0,0,0,0,0,0,0,0,5.486,0,5.513,5.541,5.541,5.569,5.625,5.654,5.683,5.742,5.772,5.833,5.864,5.895,5.895,5.895,5.895,5.926,5.926,5.895,5.895,5.895,0,5.833,0,5.802,5.772,5.742,5.712,5.683,5.654,5.625,5.625,5.597,5.569,5.541,5.513,5.486,5.459,5.432,5.406,5.38,5.354,5.328,5.302,5.277,5.227,5.203,5.154,5.131,5.084,5.06,5.015,4.992,4.947,4.925,4.904,4.882,4.861,4.839,4.818,4.818,4.797,4.777,4.777,4.736,4.716,4.716,4.676,4.656,4.637,4.598,4.579,4.542,4.523,4.487,4.469,4.451,4.415,4.398,4.38,4.363,4.329,4.312,4.295,4.279,4.262,4.23,4.214,4.198,4.166,4.151,4.135,4.12,4.089,4.074,4.059,4.03,4.001,3.972,3.958,3.93,3.902,3.875,3.848,3.821,3.795,3.769,3.757,3.744,3.731,3.719,3.706,3.694,3.682,3.682,3.67,3.657,3.645,3.633,3.622,3.622,3.61,3.598,3.586,3.575,3.552,3.541,3.529,3.507,3.496,3.474,3.463,3.442,3.431,3.41,3.399,3.379,3.368,3.348,3.338,3.328,3.318,3.308,3.298,3.288,3.279,3.269,3.259,3.25,3.25,3.24,3.231,3.222,3.203,3.194,3.175,3.157,3.139,3.122,3.104,3.096,3.07,3.053,3.045,3.036
0,0,0,0,0,0,0,0,0,4.818,4.777,4.736,4.716,4.656,4.637,4.579,4.561,4.523,4.505,4.487,4.487,4.469,4.469,4.469,4.469,4.469,4.469,4.469,4.469,4.469,4.487,4.487,4.487,4.469,4.469,4.469,4.469,4.469,4.469,4.469,4.469,4.469,4.469,4.469,4.487,4.487,4.487,4.487,4.487,4.505,4.505,4.487,4.487,4.487,4.469,4.469,4.469,4.451,4.451,4.433,4.433,4.415,4.415,4.38,4.38,4.38,4.363,4.346,4.346,4.346,4.329,4.329,4.329,4.329,4.312,4.312,4.312,4.312,4.312,4.312,4.312,4.312,4.329,4.329,4.346,4.329,4.329,4.329,4.346,4.329,4.329,4.329,4.329,4.329,4.346,4.363,4.398,4.433,4.469,4.487,4.542,4.579,4.637,4.716,4.777,4.861,4.947,5.015,5.107,5.154,5.203,5.227,5.252,5.252,5.252,5.227,5.227,5.227,5.227,5.252,5.227,5.227,5.227,5.227,5.227,5.252,5.252,5.252,5.252,5.277,5.277,5.328,5.354,5.38,5.406,5.432,5.486,5.486,5.513,5.513,5.486,5.459,5.432,5.432,5.406,5.38,5.354,5.354,5.354,5.354,5.354,5.328,5.328,5.328,5.328,5.302,5.302,5.328,5.302,5.302,5.277,5.302,5.302,5.302,5.302,5.277,5.277,5.277,5.302,5.328,5.328,5.354,5.38,5.432,5.459,5.486,5.541,5.541,5.569,5.597,5.597,5.597,5.597,5.597,5.569,5.569,5.541,5.541,5.513,5.486,5.459,5.459,5.432,5.432,5.432,5.432,5.459,5.486,5.513,5.541,5.569,5.569,5.597,5.597,5.597,5.597,5.541,5.513,5.486,5.459,5.406,5.38,5.354,5.328,5.302,5.277,5.277,5.252,5.203,0,0,0,0,0,0,0,0,0,0,0,0,0,0,0,0,0,0,0,0,0,0,0,0,0,0,0,0,0,0,0,0,0,0,1.756,1.756,1.762,1.77,1.773,1.782,1.782,1.785,1.785,1.787,1.793,1.799,1.799,1.805,1.805,1.817,1.823,1.832,1.841,1.844,1.844,1.85,1.853,1.856,1.859,1.863,1.866,1.866,1.866,1.869,1.872,1.875,1.875,1.875,1.875,1.875,1.875,1.875,1.875,1.875,1.872,1.872,1.872,1.872,1.869,1.869,1.869,1.869,1.866,1.866,1.866,1.866,1.866,1.866,1.866,1.866,1.866,1.866,1.863,1.863,1.859,1.859,1.856,1.856,1.853,1.853,1.85,1.853,1.847,1.847,1.847,1.85,1.85,1.85,1.853,1.853,1.853,1.856,1.859,0,0,0,0,0,0,0,0,0,0,0,0,0,0,0,0,0,0,0,0,0,5.459,5.459,5.459,5.486,5.513,5.513,5.541,5.569,5.625,5.654,5.712,5.742,5.802,5.833,5.864,5.864,5.895,5.895,5.895,5.895,5.895,5.895,5.895,5.864,5.833,5.802,5.802,5.772,5.742,5.712,5.683,5.654,5.625,5.597,5.569,5.541,5.513,5.486,5.459,5.432,5.406,5.38,5.354,5.328,5.302,5.277,5.252,5.203,5.179,5.154,5.107,5.084,5.037,4.992,4.97,4.947,4.925,4.904,4.882,4.861,4.839,4.818,4.818,4.797,4.777,4.777,4.736,4.716,4.696,4.676,4.656,4.637,4.598,4.579,4.542,4.523,4.487,4.469,4.433,4.415,4.398,4.38,4.346,4.329,4.312,4.295,4.279,4.246,4.23,4.214,4.182,4.166,4.151,4.12,4.104,4.089,4.074,4.045,4.03,4.001,3.972,3.944,3.93,3.888,3.861,3.835,3.821,3.795,3.769,3.757,3.731,3.731,3.719,3.706,3.694,3.694,3.682,3.67,3.657,3.645,3.633,3.622,3.622,3.61,3.598,3.586,3.563,3.552,3.541,3.529,3.507,3.496,3.474,3.463,3.442,3.431,3.41,3.399,3.379,3.368,3.348,3.338,3.328,3.318,3.308,3.298,3.288,3.279,3.269,3.269,3.259,3.25,3.25,3.24,3.222,3.212,3.203,3.185,3.166,3.148,3.131,3.104,3.096,3.07,3.053,3.045,3.036
0,0,0,0,0,0,0,0,0,0,4.756,4.736,4.696,4.656,4.618,4.561,4.542,4.505,4.487,4.469,4.451,4.451,4.451,4.433,4.451,4.451,4.451,4.451,4.469,4.469,4.469,4.469,4.469,4.487,4.487,4.487,4.469,4.469,4.469,4.469,4.469,4.469,4.469,4.469,4.469,4.469,4.487,4.487,4.487,4.487,4.487,4.487,4.487,4.469,4.469,4.469,4.451,4.451,4.451,4.433,4.433,4.415,4.415,4.398,4.38,4.363,4.363,4.346,4.329,4.329,4.312,4.295,4.295,4.295,4.279,4.262,4.262,4.262,4.246,4.262,4.262,4.262,4.262,4.262,4.262,4.262,4.262,4.279,4.262,4.262,4.262,4.262,4.262,4.279,4.295,4.312,4.346,4.363,4.398,4.415,4.469,4.505,4.561,4.618,4.676,4.736,4.818,4.882,4.947,4.992,5.037,5.037,5.037,5.06,5.037,5.015,5.015,5.015,4.992,5.015,5.015,5.015,4.992,5.015,5.015,5.015,5.037,5.037,5.037,5.037,5.06,5.084,5.107,5.131,5.154,5.203,5.227,5.252,5.252,5.252,5.227,5.203,5.179,5.179,5.131,5.131,5.107,5.107,5.107,5.107,5.107,5.107,5.084,5.107,5.107,5.107,5.107,5.084,5.084,5.084,5.084,5.084,5.084,5.084,5.084,5.084,5.084,5.084,5.084,5.107,5.131,5.154,5.179,5.203,5.227,5.252,5.277,5.302,5.302,5.328,5.328,5.328,5.328,5.328,5.302,5.302,5.302,5.277,5.252,5.227,5.203,5.203,5.203,5.179,5.179,5.203,5.227,5.252,5.277,5.302,5.328,5.354,5.354,5.38,5.354,5.354,5.328,5.302,5.277,5.252,5.227,5.203,5.179,5.154,5.131,5.131,5.107,5.107,5.084,5.06,0,0,0,0,0,0,0,0,0,0,0,0,0,0,0,0,0,0,0,0,0,0,0,0,0,0,0,0,0,0,0,0,0,0,0,0,1.776,1.779,1.785,1.79,1.79,1.793,1.796,1.802,1.811,1.808,1.814,1.82,1.823,1.832,1.844,1.85,1.853,1.856,1.859,1.863,1.863,1.866,1.869,1.869,1.872,1.872,1.872,1.875,1.875,1.878,1.878,1.878,1.878,1.878,1.878,1.875,1.875,1.875,1.872,1.872,1.872,1.872,1.869,1.869,1.869,1.866,1.866,1.866,1.866,1.869,1.869,1.869,1.869,1.866,1.866,1.866,1.863,1.863,1.859,1.856,1.856,1.856,1.853,1.853,1.85,1.85,1.85,0,0,0,0,0,0,0,0,0,0,0,0,0,0,0,0,0,0,0,0,0,0,0,0,5.38,5.328,5.302,0,5.252,5.277,5.277,5.302,5.328,5.354,5.406,5.432,5.486,5.513,5.569,5.625,5.654,5.712,5.742,5.802,5.833,5.833,5.864,5.864,5.864,5.864,5.864,5.864,5.833,5.833,5.802,5.772,5.742,5.712,5.683,5.654,5.625,5.597,5.569,5.569,5.541,5.513,5.459,5.459,5.432,5.406,5.38,5.354,5.328,5.302,5.252,5.227,5.203,5.179,5.154,5.107,5.06,5.037,5.015,4.97,4.947,4.925,4.904,4.882,4.861,4.839,4.839,4.818,4.797,4.777,4.777,4.756,4.736,4.716,4.696,4.656,4.637,4.618,4.598,4.561,4.542,4.505,4.487,4.451,4.433,4.415,4.398,4.363,4.346,4.329,4.312,4.295,4.262,4.246,4.23,4.198,4.182,4.166,4.135,4.12,4.104,4.089,4.059,4.045,4.015,3.986,3.972,3.944,3.916,3.888,3.861,3.835,3.821,3.795,3.769,3.757,3.744,3.731,3.719,3.719,3.706,3.694,3.682,3.67,3.657,3.645,3.645,3.633,3.622,3.61,3.598,3.586,3.563,3.552,3.541,3.529,3.507,3.496,3.474,3.463,3.442,3.431,3.41,3.399,3.379,3.368,3.348,3.338,3.328,3.318,3.308,3.298,3.288,3.279,3.269,3.269,3.259,3.25,3.25,3.24,3.222,3.212,3.203,3.185,3.166,3.148,3.131,3.104,3.096,3.078,3.053,3.045,3.036
