0,0,0,0,0,0,4.676,4.637,4.618,4.542,4.505,4.469,4.433,4.415,4.398,4.363,4.346,4.329,4.312,4.295,4.295,4.279,4.279,4.262,4.262,4.279,4.279,4.279,4.295,4.312,4.329,4.329,4.346,4.346,4.346,4.346,4.346,4.346,4.346,4.346,4.346,4.329,4.329,4.329,4.312,4.312,4.312,4.295,4.295,4.295,4.295,4.295,4.295,4.295,4.295,4.312,4.329,4.329,4.346,4.346,4.363,4.363,4.346,4.346,4.346,4.346,4.346,4.346,4.346,4.346,4.363,4.363,4.363,4.38,4.398,4.398,4.398,4.398,4.398,4.398,4.415,4.415,4.415,4.415,4.415,4.398,4.398,4.398,4.398,4.398,4.415,4.415,4.415,4.433,4.433,4.433,4.451,4.451,4.451,4.451,4.469,4.469,4.451,4.451,4.451,4.433,4.433,4.433,4.415,4.415,4.415,4.415,4.415,4.433,4.433,4.433,4.433,4.433,4.433,4.433,4.433,4.433,4.415,4.415,4.415,4.415,4.398,4.398,4.398,4.398,4.415,4.415,4.415,4.415,4.433,4.433,4.433,4.433,4.433,4.433,4.433,4.451,4.451,4.451,4.451,4.451,4.451,4.451,4.469,4.469,4.469,4.469,4.469,4.469,4.469,4.487,4.487,4.487,4.487,4.487,4.487,4.487,4.487,4.487,4.487,4.487,4.487,4.487,4.487,4.487,4.487,4.487,4.469,4.469,4.469,4.469,4.469,4.469,4.469,4.469,4.469,4.469,4.469,4.469,4.469,4.469,4.469,4.469,4.469,4.451,4.451,4.451,4.433,4.433,4.433,4.433,4.433,4.433,4.415,4.415,4.398,4.398,4.398,4.398,4.398,4.38,4.38,4.38,4.38,4.38,4.38,4.38,4.38,4.398,4.415,4.415,4.398,4.415,4.415,4.415,4.415,4.433,4.433,4.451,4.469,4.505,4.523,4.542,4.561,4.561,4.579,4.579,4.598,4.598,4.618,4.618,4.637,4.637,4.637,4.637,4.637,4.656,4.656,4.656,4.656,4.656,4.656,4.676,4.676,4.676,4.696,4.716,4.736,4.736,4.736,4.756,4.777,4.797,4.797,4.797,4.797,4.797,4.797,4.797,4.777,4.777,4.756,4.756,4.736,4.736,4.736,4.716,4.716,4.716,4.716,4.716,4.716,4.696,4.696,4.716,4.716,4.716,4.716,4.716,4.716,4.716,4.716,4.716,4.716,4.716,4.716,4.736,4.736,4.736,4.736,4.736,4.736,4.736,4.736,4.736,4.736,4.716,4.716,4.716,4.716,4.716,4.716,4.716,4.716,4.716,4.716,4.736,4.736,4.756,4.756,4.756,4.777,4.777,4.797,4.797,4.797,4.797,4.797,4.797,4.797,4.797,4.797,4.797,4.777,4.777,4.797,4.797,4.777,4.777,4.777,4.777,4.756,4.756,4.756,4.736,4.736,4.736,4.736,4.716,4.696,4.696,4.696,4.696,4.676,4.656,4.656,4.656,4.656,4.656,4.656,4.656,4.656,4.656,4.656,4.656,4.676,4.676,4.696,4.696,4.716,4.736,4.756,4.756,4.777,4.797,4.797,4.818,4.818,4.839,4.839,4.861,4.861,4.861,4.861,4.861,4.839,4.861,4.861,4.839,4.839,4.861,4.861,4.861,4.861,4.861,4.861,4.861,4.882,4.882,4.882,4.882,4.882,4.861,4.882,4.861,4.861,4.861,4.861,4.861,4.839,4.818,4.818,4.797,4.777,4.756,4.736,4.716,4.696,4.676,4.656,4.656,4.637,4.618,4.618,4.579,4.561,4.542,4.542,4.523,4.505,4.487,4.469,4.451,4.433,4.415,4.38,4.363,4.346,4.329,4.295,4.279,4.262,4.246,4.214,4.214,4.182,4.166,4.151,4.135,4.12,4.104,4.089,4.074,4.059,4.045,4.015,4.001,3.972,3.944,3.902,3.875,3.835,3.808,3.782,3.757,3.731,3.731,3.719,3.706,3.694,3.682,3.67,3.657,3.645,3.633,3.622,3.61,3.598,3.586,3.563,3.552,3.541,3.529,3.518,3.496,3.485,3.474,3.452,3.442,3.42,3.41,3.389,3.379,3.368,3.358,3.338,3.328,3.318,3.308,3.298,3.288,3.279,3.269,3.25,3.24,3.231,3.212,3.203,3.185,3.166,3.148,3.131,3.113,3.104,3.087,3.078,3.061,3.053,3.045,3.036,3.028,3.02,3.003,2.995,2.987,2.979
0,0,0,0,0,0,4.676,4.637,4.618,4.542,4.505,4.469,4.433,4.415,4.38,4.363,4.346,4.329,4.312,4.295,4.279,4.279,4.262,4.262,4.262,4.262,4.279,4.279,4.295,4.295,4.329,4.329,4.346,4.346,4.346,4.363,4.363,4.363,4.363,4.363,4.363,4.363,4.346,4.346,4.346,4.329,4.329,4.329,4.312,4.295,4.295,4.312,4.312,4.312,4.312,4.329,4.329,4.329,4.346,4.346,4.363,4.363,4.346,4.346,4.346,4.346,4.346,4.346,4.346,4.346,4.346,4.363,4.363,4.363,4.38,4.38,4.398,4.398,4.398,4.398,4.398,4.415,4.415,4.415,4.398,4.398,4.398,4.398,4.398,4.415,4.415,4.415,4.415,4.433,4.451,4.469,4.469,4.487,4.487,4.505,4.523,4.523,4.523,4.523,4.523,4.523,4.505,4.487,4.487,4.469,4.469,4.469,4.451,4.469,4.451,4.451,4.469,4.469,4.469,4.451,4.451,4.451,4.451,4.451,4.433,4.433,4.415,4.415,4.415,4.415,4.415,4.415,4.415,4.415,4.415,4.433,4.433,4.433,4.433,4.433,4.433,4.433,4.433,4.433,4.433,4.451,4.451,4.451,4.469,4.469,4.487,4.487,4.487,4.487,4.487,4.487,4.487,4.505,4.505,4.505,4.505,4.505,4.505,4.505,4.505,4.505,4.505,4.505,4.505,4.505,4.505,4.505,4.505,4.505,4.505,4.487,4.487,4.487,4.487,4.487,4.487,4.487,4.487,4.487,4.487,4.487,4.487,4.487,4.487,4.487,4.469,4.469,4.469,4.469,4.451,4.451,4.451,4.451,4.433,4.433,4.433,4.415,4.415,4.415,4.415,4.415,4.415,4.415,4.415,4.415,4.415,4.415,4.415,4.433,4.433,4.433,4.433,4.433,4.433,4.433,4.433,4.451,4.451,4.469,4.505,4.523,4.542,4.561,4.579,4.598,4.598,4.598,4.618,4.618,4.637,4.637,4.637,4.637,4.637,4.656,4.656,4.656,4.656,4.656,4.656,4.656,4.676,4.676,4.696,4.696,4.696,4.716,4.716,4.736,4.736,4.736,4.756,4.777,4.777,4.777,4.777,4.777,4.777,4.777,4.756,4.756,4.736,4.736,4.736,4.716,4.716,4.716,4.696,4.696,4.696,4.696,4.696,4.696,4.696,4.696,4.696,4.696,4.696,4.696,4.716,4.716,4.716,4.716,4.716,4.716,4.716,4.716,4.736,4.736,4.736,4.736,4.756,4.756,4.756,4.756,4.756,4.736,4.736,4.736,4.736,4.736,4.736,4.736,4.736,4.716,4.716,4.716,4.736,4.736,4.756,4.756,4.777,4.777,4.797,4.797,4.797,4.797,4.797,4.797,4.797,4.797,4.797,4.797,4.777,4.777,4.797,4.797,4.777,4.777,4.777,4.756,4.756,4.756,4.756,4.736,4.736,4.716,4.716,4.716,4.696,4.696,4.696,4.696,4.696,4.676,4.656,4.656,4.656,4.656,4.656,4.656,4.656,4.656,4.656,4.656,4.656,4.676,4.676,4.696,4.716,4.736,4.736,4.756,4.777,4.797,4.818,4.818,4.839,4.861,4.861,4.861,4.882,4.882,4.882,4.882,4.861,4.882,4.861,4.861,4.861,4.861,4.882,4.882,4.882,4.882,4.882,4.882,4.882,4.882,4.882,4.882,4.882,4.882,4.882,4.882,4.861,4.861,4.861,4.861,4.861,4.839,4.818,4.797,4.797,4.756,4.736,4.716,4.716,4.696,4.676,4.656,4.637,4.618,4.598,4.579,4.561,4.542,4.523,4.505,4.487,4.469,4.451,4.433,4.398,4.38,4.363,4.346,4.329,4.312,4.295,4.279,4.262,4.246,4.23,4.214,4.198,4.182,4.166,4.135,4.12,4.104,4.089,4.074,4.059,4.045,4.03,4.001,3.972,3.944,3.916,3.875,3.848,3.808,3.782,3.757,3.744,3.731,3.719,3.706,3.694,3.682,3.67,3.67,3.657,3.645,3.633,3.622,3.598,3.586,3.575,3.563,3.541,3.529,3.518,3.507,3.485,3.474,3.452,3.442,3.42,3.41,3.389,3.379,3.368,3.348,3.338,3.328,3.318,3.308,3.298,3.288,3.279,3.269,3.25,3.24,3.231,3.212,3.203,3.185,3.166,3.148,3.139,3.122,3.104,3.087,3.078,3.07,3.053,3.045,3.036,3.028,3.02,3.003,2.995,2.987,2.979
0,0,0,0,0,4.736,4.676,4.637,4.618,4.542,4.505,4.469,4.433,4.415,4.38,4.363,4.329,4.312,4.312,4.295,4.279,4.279,4.262,4.262,4.262,4.262,4.262,4.279,4.295,4.312,4.329,4.329,4.346,4.346,4.346,4.363,4.363,4.363,4.363,4.363,4.363,4.363,4.363,4.363,4.363,4.346,4.346,4.346,4.329,4.329,4.329,4.329,4.329,4.329,4.329,4.329,4.329,4.329,4.346,4.346,4.363,4.346,4.346,4.346,4.329,4.329,4.329,4.329,4.329,4.329,4.329,4.346,4.363,4.363,4.363,4.38,4.38,4.398,4.398,4.398,4.398,4.398,4.398,4.398,4.398,4.398,4.398,4.398,4.398,4.415,4.415,4.415,4.433,4.451,4.469,4.487,4.505,4.523,4.542,4.561,4.579,4.598,4.598,4.598,4.598,4.598,4.579,4.579,4.561,4.542,4.542,4.523,4.523,4.523,4.523,4.523,4.505,4.523,4.523,4.523,4.523,4.505,4.505,4.505,4.487,4.487,4.469,4.469,4.469,4.469,4.469,4.469,4.451,4.451,4.451,4.451,4.451,4.469,4.469,4.469,4.469,4.469,4.469,4.469,4.469,4.469,4.487,4.487,4.505,4.505,4.505,4.505,4.505,4.505,4.505,4.505,4.505,4.505,4.505,4.505,4.505,4.505,4.505,4.523,4.523,4.523,4.523,4.523,4.523,4.523,4.523,4.523,4.523,4.523,4.523,4.523,4.505,4.505,4.505,4.505,4.505,4.505,4.505,4.505,4.505,4.505,4.505,4.505,4.505,4.505,4.487,4.487,4.487,4.487,4.487,4.469,4.469,4.469,4.469,4.469,4.451,4.451,4.451,4.469,4.469,4.451,4.451,4.451,4.451,4.451,4.451,4.451,4.451,4.451,4.469,4.469,4.469,4.469,4.469,4.469,4.487,4.487,4.505,4.523,4.542,4.561,4.579,4.598,4.618,4.618,4.618,4.637,4.637,4.637,4.637,4.637,4.637,4.656,4.656,4.656,4.656,4.656,4.676,4.676,4.676,4.676,4.676,4.676,4.696,4.696,4.716,4.716,4.716,4.736,4.736,4.736,4.756,4.756,4.756,4.756,4.777,4.756,4.756,4.756,4.756,4.736,4.736,4.736,4.716,4.696,4.696,4.696,4.696,4.696,4.696,4.696,4.696,4.676,4.696,4.696,4.696,4.696,4.696,4.696,4.696,4.696,4.696,4.696,4.716,4.716,4.716,4.736,4.736,4.736,4.756,4.756,4.777,4.777,4.777,4.777,4.777,4.777,4.777,4.756,4.756,4.756,4.736,4.736,4.736,4.736,4.736,4.736,4.736,4.736,4.756,4.756,4.756,4.777,4.777,4.777,4.777,4.797,4.797,4.797,4.797,4.797,4.797,4.797,4.797,4.797,4.797,4.797,4.777,4.777,4.777,4.756,4.756,4.756,4.736,4.736,4.736,4.716,4.716,4.716,4.696,4.696,4.696,4.696,4.696,4.676,4.676,4.676,4.676,4.676,4.676,4.676,4.676,4.676,4.676,4.656,4.676,4.676,4.676,4.696,4.716,4.736,4.736,4.756,4.777,4.797,4.818,4.839,4.839,4.861,4.882,4.882,4.882,4.882,4.882,4.882,4.882,4.882,4.882,4.861,4.882,4.882,4.882,4.882,4.882,4.904,4.904,4.904,4.904,4.882,4.882,4.882,4.882,4.882,4.882,4.882,4.882,4.882,4.882,4.861,4.861,4.861,4.839,4.818,4.797,4.777,4.756,4.736,4.736,4.716,4.696,4.676,4.656,4.637,4.618,4.598,4.561,4.542,4.523,4.505,4.469,4.451,4.433,4.415,4.398,4.38,4.363,4.329,4.329,4.312,4.295,4.279,4.262,4.246,4.23,4.214,4.198,4.182,4.166,4.151,4.135,4.104,4.089,4.074,4.059,4.059,4.03,4.015,3.986,3.958,3.93,3.888,3.848,3.821,3.795,3.769,3.744,3.744,3.731,3.719,3.706,3.694,3.682,3.67,3.657,3.645,3.633,3.622,3.61,3.598,3.575,3.563,3.552,3.541,3.518,3.507,3.485,3.474,3.452,3.442,3.42,3.41,3.389,3.379,3.368,3.348,3.338,3.328,3.318,3.308,3.298,3.288,3.279,3.269,3.25,3.24,3.231,3.222,3.203,3.185,3.175,3.157,3.139,3.122,3.113,3.096,3.078,3.07,3.061,3.045,3.036,3.028,3.02,3.003,2.995,2.987,2.979
0,0,0,0,0,4.736,4.696,4.656,4.637,4.561,4.523,4.469,4.433,4.398,4.38,4.363,4.329,4.312,4.295,4.295,4.279,4.279,4.262,4.262,4.262,4.262,4.262,4.279,4.295,4.295,4.312,4.329,4.346,4.346,4.346,4.363,4.363,4.363,4.363,4.38,4.38,4.38,4.38,4.38,4.38,4.363,4.363,4.346,4.346,4.329,4.329,4.329,4.329,4.329,4.329,4.329,4.346,4.346,4.346,4.346,4.363,4.346,4.346,4.346,4.329,4.329,4.329,4.329,4.329,4.312,4.329,4.329,4.346,4.346,4.363,4.363,4.363,4.38,4.38,4.398,4.398,4.398,4.398,4.398,4.398,4.398,4.398,4.398,4.398,4.415,4.415,4.433,4.433,4.451,4.487,4.505,4.523,4.561,4.579,4.618,4.637,4.656,4.676,4.676,4.676,4.676,4.676,4.656,4.637,4.618,4.618,4.598,4.598,4.579,4.561,4.561,4.561,4.579,4.579,4.579,4.579,4.579,4.598,4.598,4.598,4.598,4.561,4.561,4.561,4.561,4.561,4.561,4.542,4.523,4.523,4.523,4.505,4.505,4.505,4.505,4.487,4.487,4.487,4.487,4.505,4.505,4.505,4.505,4.505,4.523,4.523,4.523,4.523,4.523,4.523,4.523,4.523,4.523,4.523,4.523,4.523,4.505,4.523,4.523,4.523,4.523,4.523,4.523,4.542,4.542,4.542,4.542,4.542,4.542,4.542,4.542,4.542,4.542,4.542,4.523,4.523,4.523,4.523,4.523,4.523,4.523,4.523,4.523,4.523,4.523,4.523,4.523,4.523,4.523,4.505,4.505,4.505,4.505,4.505,4.487,4.487,4.487,4.487,4.487,4.505,4.505,4.487,4.487,4.505,4.505,4.505,4.505,4.487,4.487,4.487,4.487,4.505,4.505,4.505,4.505,4.523,4.523,4.542,4.561,4.579,4.598,4.618,4.618,4.637,4.637,4.656,4.656,4.656,4.656,4.656,4.656,4.656,4.656,4.656,4.676,4.676,4.676,4.676,4.676,4.676,4.676,4.696,4.696,4.716,4.716,4.716,4.716,4.736,4.736,4.736,4.756,4.756,4.756,4.756,4.756,4.756,4.756,4.756,4.756,4.736,4.736,4.716,4.716,4.716,4.696,4.676,4.676,4.676,4.676,4.676,4.676,4.696,4.696,4.716,4.716,4.716,4.716,4.716,4.716,4.716,4.716,4.736,4.716,4.716,4.736,4.736,4.756,4.756,4.756,4.777,4.777,4.797,4.797,4.797,4.797,4.797,4.797,4.797,4.797,4.777,4.777,4.756,4.756,4.756,4.736,4.736,4.736,4.756,4.756,4.756,4.756,4.756,4.777,4.777,4.777,4.777,4.777,4.777,4.797,4.797,4.797,4.818,4.818,4.818,4.818,4.818,4.818,4.818,4.797,4.797,4.777,4.777,4.756,4.756,4.736,4.736,4.736,4.736,4.716,4.716,4.716,4.716,4.716,4.696,4.696,4.696,4.696,4.696,4.676,4.676,4.676,4.676,4.676,4.676,4.676,4.676,4.676,4.696,4.696,4.716,4.736,4.756,4.777,4.797,4.797,4.818,4.839,4.861,4.861,4.861,4.882,4.882,4.904,4.904,4.904,4.882,4.882,4.882,4.882,4.882,4.882,4.882,4.904,4.904,4.904,4.904,4.904,4.904,4.882,4.882,4.882,4.882,4.882,4.882,4.882,4.882,4.882,4.882,4.882,4.882,4.861,4.861,4.839,4.818,4.797,4.777,4.756,4.756,4.736,4.716,4.696,4.656,4.637,4.618,4.598,4.579,4.561,4.523,4.505,4.469,4.451,4.433,4.398,4.38,4.363,4.346,4.329,4.312,4.295,4.279,4.279,4.262,4.246,4.23,4.23,4.214,4.182,4.166,4.151,4.135,4.12,4.089,4.074,4.074,4.059,4.045,4.015,3.986,3.958,3.93,3.902,3.861,3.835,3.808,3.782,3.757,3.744,3.731,3.719,3.706,3.694,3.682,3.67,3.67,3.657,3.645,3.622,3.61,3.598,3.586,3.575,3.552,3.541,3.529,3.507,3.496,3.474,3.452,3.442,3.42,3.41,3.389,3.379,3.368,3.348,3.338,3.328,3.318,3.308,3.298,3.288,3.269,3.259,3.25,3.24,3.231,3.222,3.203,3.194,3.175,3.157,3.139,3.131,3.113,3.096,3.087,3.07,3.061,3.045,3.036,3.028,3.02,3.011,3.003,2.995,2.987
0,0,0,0,0,0,0,4.676,4.637,4.561,4.523,4.469,4.433,4.415,4.38,4.363,4.329,4.312,4.295,4.295,4.295,4.279,4.279,4.262,4.262,4.262,4.262,4.279,4.295,4.295,4.312,4.312,4.329,4.346,4.346,4.346,4.363,4.363,4.363,4.363,4.38,4.38,4.38,4.38,4.38,4.38,4.38,4.363,4.363,4.346,4.346,4.346,4.346,4.346,4.346,4.346,4.346,4.346,4.346,4.346,4.363,4.346,4.346,4.329,4.329,4.329,4.329,4.312,4.312,4.312,4.312,4.329,4.329,4.329,4.329,4.346,4.363,4.363,4.363,4.363,4.38,4.38,4.398,4.398,4.398,4.398,4.398,4.398,4.398,4.398,4.415,4.433,4.451,4.451,4.487,4.505,4.542,4.579,4.618,4.656,4.696,4.716,4.736,4.756,4.756,4.777,4.777,4.756,4.736,4.716,4.716,4.696,4.676,4.676,4.656,4.656,4.656,4.676,4.676,4.676,4.696,4.716,4.716,4.736,4.736,4.696,4.696,4.696,4.696,4.696,4.696,4.676,4.656,4.618,4.618,4.618,4.598,4.598,4.598,4.579,4.579,4.598,4.618,4.637,4.637,4.618,4.618,4.618,4.637,4.637,4.637,4.637,4.618,4.618,4.618,4.637,4.598,4.579,4.561,4.561,4.561,4.542,4.542,4.561,4.561,4.579,4.579,4.579,4.579,4.579,4.598,4.618,4.618,4.618,4.618,4.618,4.637,4.637,4.656,4.637,4.637,4.637,4.618,4.618,4.618,4.618,4.618,4.618,4.618,4.618,4.618,4.618,4.618,4.618,4.618,4.618,4.618,4.598,4.598,4.598,4.579,4.579,4.579,4.579,4.579,4.579,4.579,4.579,4.561,4.561,4.561,4.561,4.542,4.523,4.523,4.523,4.523,4.542,4.542,4.542,4.561,4.579,4.598,4.598,4.618,4.637,4.637,4.656,4.656,4.676,4.676,4.656,4.656,4.656,4.656,4.656,4.656,4.656,4.676,4.676,4.676,4.676,4.676,4.676,4.696,4.696,4.716,4.716,4.716,4.716,4.736,4.736,4.736,4.736,4.736,4.756,4.756,4.756,4.756,4.756,4.756,4.756,4.756,4.736,4.736,4.716,4.716,4.696,4.696,4.696,4.676,4.676,4.676,4.676,4.676,4.696,4.696,4.716,4.716,4.736,4.736,4.736,4.756,4.756,4.756,4.756,4.756,4.756,4.756,4.777,4.777,4.777,4.777,4.797,4.797,4.818,4.818,4.818,4.818,4.818,4.818,4.818,4.818,4.818,4.797,4.797,4.797,4.777,4.777,4.777,4.777,4.756,4.777,4.777,4.777,4.777,4.797,4.797,4.797,4.797,4.818,4.818,4.818,4.818,4.818,4.839,4.839,4.839,4.839,4.839,4.861,4.861,4.839,4.839,4.818,4.818,4.797,4.777,4.777,4.756,4.756,4.736,4.736,4.736,4.736,4.736,4.716,4.716,4.716,4.696,4.696,4.696,4.696,4.696,4.696,4.696,4.696,4.696,4.696,4.696,4.696,4.696,4.716,4.716,4.736,4.756,4.756,4.777,4.797,4.797,4.818,4.839,4.839,4.861,4.882,4.882,4.882,4.904,4.904,4.904,4.882,4.882,4.882,4.882,4.882,4.904,4.904,4.904,4.904,4.904,4.904,4.904,4.904,4.904,4.882,4.882,4.882,4.882,4.882,4.882,4.882,4.882,4.882,4.882,4.882,4.882,4.861,4.839,4.839,4.818,4.797,4.777,4.777,4.736,4.716,4.696,4.676,4.656,4.637,4.618,4.598,4.561,4.542,4.505,4.469,4.451,4.415,4.398,4.38,4.346,4.329,4.312,4.295,4.295,4.279,4.279,4.262,4.262,4.246,4.23,4.214,4.198,4.166,4.151,4.135,4.12,4.089,4.089,4.074,4.059,4.045,4.015,3.986,3.972,3.944,3.916,3.875,3.848,3.821,3.795,3.769,3.757,3.744,3.731,3.719,3.706,3.694,3.682,3.67,3.657,3.645,3.633,3.622,3.61,3.586,3.575,3.563,3.552,3.529,3.507,3.496,3.474,3.452,3.442,3.42,3.41,3.389,3.379,3.368,3.348,3.338,3.328,3.318,3.308,3.298,3.288,3.269,3.259,3.25,3.24,3.231,3.212,3.203,3.194,3.175,3.157,3.139,3.131,3.113,3.096,3.087,3.07,3.061,3.053,3.045,3.028,3.02,3.011,3.003,2.995,2.987
0,0,0,0,0,0,0,4.676,4.637,4.561,4.523,4.469,4.451,4.415,4.38,4.346,4.329,4.312,4.295,4.279,4.279,4.279,4.279,4.279,4.279,4.279,4.279,4.295,4.312,4.312,4.312,4.312,4.329,4.329,4.329,4.329,4.346,4.363,4.363,4.363,4.38,4.38,4.38,4.398,4.398,4.38,4.38,4.38,4.38,4.363,4.363,4.363,4.363,4.363,4.363,4.363,4.363,4.363,4.363,4.346,4.363,4.346,4.346,4.329,4.329,4.329,4.312,4.312,4.312,4.295,4.295,4.312,4.312,4.329,4.329,4.329,4.329,4.346,4.346,4.363,4.363,4.363,4.363,4.38,4.38,4.38,4.38,4.38,4.398,4.398,4.415,4.433,4.451,4.469,4.487,4.523,4.561,4.618,4.656,4.696,4.756,4.777,4.818,4.839,4.861,4.882,4.861,4.861,4.839,4.818,4.818,4.777,4.777,4.777,4.756,4.756,4.777,4.777,4.777,4.797,4.797,4.818,4.839,4.861,4.882,4.861,4.839,4.861,4.861,4.861,4.861,4.861,4.839,4.797,4.777,4.756,4.736,4.736,4.716,4.716,4.716,4.716,4.756,4.777,4.797,4.777,4.756,4.777,4.777,4.777,4.777,4.777,4.777,4.777,4.797,4.756,4.736,4.716,4.696,4.676,4.676,4.676,4.656,4.676,4.696,4.696,4.696,4.696,4.676,4.676,4.696,4.716,4.696,4.676,4.696,4.716,4.736,4.756,4.777,4.777,4.756,4.756,4.756,4.756,4.756,4.756,4.736,4.736,4.736,4.736,4.756,4.756,4.756,4.736,4.736,4.736,4.736,4.716,4.716,4.716,4.696,4.696,4.676,4.696,4.696,4.676,4.676,4.676,4.676,4.656,4.656,4.637,4.618,4.598,4.579,4.579,4.561,4.561,4.579,4.579,4.618,4.637,4.656,4.676,4.696,4.716,4.736,4.736,4.736,4.736,4.736,4.736,4.716,4.716,4.716,4.716,4.716,4.716,4.716,4.716,4.716,4.716,4.736,4.716,4.736,4.736,4.736,4.756,4.756,4.777,4.777,4.777,4.777,4.777,4.777,4.777,4.756,4.756,4.777,4.777,4.777,4.756,4.756,4.756,4.736,4.736,4.736,4.716,4.716,4.696,4.696,4.696,4.696,4.696,4.716,4.716,4.716,4.736,4.756,4.777,4.777,4.797,4.797,4.797,4.797,4.818,4.818,4.797,4.797,4.818,4.818,4.818,4.818,4.839,4.839,4.839,4.839,4.861,4.861,4.861,4.861,4.861,4.861,4.861,4.861,4.839,4.839,4.839,4.818,4.818,4.818,4.818,4.818,4.818,4.818,4.818,4.839,4.839,4.839,4.839,4.861,4.839,4.861,4.861,4.882,4.882,4.882,4.882,4.882,4.882,4.925,4.904,4.882,4.882,4.882,4.861,4.839,4.818,4.818,4.777,4.777,4.777,4.777,4.756,4.756,4.756,4.736,4.736,4.736,4.716,4.716,4.716,4.716,4.716,4.716,4.716,4.716,4.716,4.716,4.716,4.716,4.716,4.736,4.736,4.736,4.756,4.756,4.777,4.797,4.797,4.818,4.839,4.839,4.861,4.882,4.882,4.882,4.882,4.904,4.904,4.904,4.904,4.904,4.904,4.904,4.904,4.904,4.904,4.904,4.904,4.904,4.904,4.904,4.882,4.882,4.882,4.882,4.882,4.882,4.882,4.882,4.882,4.882,4.882,4.882,4.882,4.882,4.861,4.839,4.818,4.818,4.797,4.777,4.756,4.736,4.716,4.696,4.676,4.656,4.618,4.598,4.579,4.542,4.505,4.469,4.451,4.415,4.398,4.363,4.346,4.329,4.312,4.295,4.295,4.279,4.279,4.262,4.262,4.246,4.23,4.214,4.198,4.182,4.151,4.135,4.12,4.104,4.089,4.074,4.059,4.045,4.03,4.001,3.972,3.944,3.916,3.888,3.861,3.835,3.808,3.782,3.769,3.757,3.731,3.719,3.706,3.694,3.694,3.682,3.67,3.645,3.633,3.622,3.61,3.598,3.586,3.563,3.541,3.529,3.507,3.496,3.474,3.452,3.442,3.42,3.41,3.389,3.379,3.368,3.348,3.338,3.328,3.318,3.308,3.298,3.288,3.269,3.259,3.25,3.24,3.222,3.212,3.194,3.185,3.175,3.157,3.139,3.131,3.113,3.096,3.087,3.07,3.061,3.053,3.045,3.028,3.02,3.011,3.003,2.995,2.987
0,0,0,0,0,0,0,0,4.637,4.579,4.523,4.487,4.469,4.433,4.398,4.363,4.329,4.312,4.295,4.295,4.279,4.279,4.279,4.279,4.279,4.295,4.295,4.312,4.312,4.312,4.329,4.329,4.329,4.329,4.329,4.329,4.346,4.346,4.363,4.363,4.363,4.38,4.38,4.38,4.398,4.38,4.38,4.38,4.38,4.38,4.363,4.363,4.363,4.363,4.363,4.363,4.363,4.363,4.363,4.346,4.346,4.346,4.329,4.329,4.329,4.312,4.312,4.312,4.295,4.295,4.295,4.295,4.295,4.312,4.312,4.312,4.329,4.329,4.329,4.346,4.346,4.363,4.363,4.363,4.363,4.363,4.38,4.38,4.38,4.398,4.415,4.433,4.451,4.469,4.505,4.542,4.579,4.637,4.696,4.756,4.797,4.839,4.882,4.925,4.947,4.97,4.947,4.947,4.947,4.925,4.904,4.882,4.882,4.861,4.861,4.861,4.882,4.882,4.904,4.904,4.925,4.947,4.97,5.015,5.037,5.015,5.015,5.037,5.06,5.06,5.06,5.06,5.037,4.992,4.97,4.97,4.947,4.925,4.925,4.904,4.904,4.925,4.947,4.947,4.97,4.947,4.925,4.947,4.947,4.947,4.947,4.925,4.947,4.97,4.947,4.925,4.904,4.882,4.861,4.839,4.839,4.818,4.818,4.818,4.818,4.839,4.839,4.818,4.818,4.797,4.818,4.839,4.839,4.839,4.839,4.861,4.882,4.925,4.97,4.947,4.925,4.925,4.925,4.904,4.904,4.882,4.882,4.861,4.861,4.882,4.882,4.904,4.882,4.882,4.882,4.861,4.861,4.839,4.839,4.839,4.818,4.818,4.818,4.818,4.797,4.797,4.797,4.777,4.777,4.777,4.756,4.736,4.716,4.716,4.696,4.696,4.696,4.696,4.696,4.716,4.736,4.756,4.777,4.777,4.797,4.818,4.818,4.839,4.839,4.839,4.839,4.818,4.818,4.818,4.797,4.797,4.797,4.797,4.797,4.797,4.797,4.797,4.797,4.797,4.797,4.818,4.818,4.818,4.818,4.839,4.839,4.839,4.861,4.839,4.839,4.818,4.818,4.818,4.797,4.797,4.797,4.797,4.797,4.797,4.797,4.797,4.777,4.777,4.777,4.777,4.756,4.756,4.756,4.756,4.756,4.756,4.777,4.777,4.818,4.818,4.839,4.861,4.861,4.861,4.882,4.882,4.882,4.861,4.861,4.861,4.882,4.882,4.882,4.882,4.882,4.882,4.882,4.904,4.904,4.904,4.904,4.904,4.904,4.904,4.904,4.904,4.882,4.882,4.882,4.882,4.882,4.882,4.882,4.882,4.882,4.882,4.882,4.882,4.882,4.904,4.904,4.904,4.904,4.904,4.925,4.925,4.947,4.947,4.97,4.97,4.97,4.97,4.947,4.947,4.925,4.904,4.882,4.882,4.861,4.839,4.839,4.839,4.818,4.818,4.797,4.777,4.777,4.756,4.756,4.756,4.756,4.736,4.736,4.736,4.736,4.736,4.736,4.736,4.736,4.736,4.736,4.756,4.756,4.756,4.756,4.777,4.777,4.797,4.797,4.818,4.818,4.839,4.861,4.861,4.882,4.882,4.904,4.904,4.904,4.904,4.904,4.904,4.904,4.904,4.904,4.904,4.904,4.904,4.904,4.904,4.904,4.882,4.882,4.882,4.882,4.882,4.882,4.882,4.882,4.882,4.882,4.882,4.882,4.882,4.904,4.882,4.882,4.861,4.861,4.839,4.818,4.818,4.797,4.777,4.756,4.716,4.696,4.676,4.656,4.637,4.598,4.579,4.542,4.505,4.487,4.451,4.415,4.398,4.363,4.346,4.329,4.312,4.295,4.295,4.279,4.262,4.262,4.262,4.246,4.23,4.214,4.198,4.182,4.151,4.135,4.12,4.104,4.089,4.074,4.059,4.045,4.03,4.001,3.972,3.958,3.93,3.902,3.875,3.848,3.821,3.795,3.782,3.757,3.744,3.731,3.719,3.706,3.694,3.682,3.67,3.657,3.645,3.622,3.61,3.598,3.575,3.563,3.541,3.529,3.507,3.496,3.474,3.452,3.442,3.42,3.41,3.389,3.379,3.368,3.358,3.338,3.328,3.328,3.318,3.298,3.288,3.279,3.259,3.25,3.231,3.222,3.212,3.194,3.185,3.166,3.157,3.139,3.131,3.113,3.096,3.087,3.07,3.061,3.053,3.045,3.028,3.02,3.011,3.003,2.995,2.987
0,0,0,0,0,0,4.676,4.656,4.618,4.579,4.542,4.505,4.469,4.433,4.398,4.363,4.329,4.312,4.295,4.279,4.279,4.279,4.279,4.279,4.295,4.295,4.312,4.312,4.329,4.329,4.329,4.346,4.346,4.346,4.329,4.329,4.346,4.346,4.346,4.363,4.363,4.363,4.38,4.38,4.38,4.38,4.38,4.38,4.38,4.38,4.363,4.363,4.363,4.363,4.363,4.363,4.363,4.346,4.346,4.346,4.346,4.329,4.329,4.329,4.312,4.312,4.312,4.312,4.295,4.295,4.295,4.295,4.295,4.295,4.295,4.295,4.312,4.312,4.329,4.329,4.329,4.346,4.346,4.363,4.363,4.363,4.363,4.38,4.38,4.398,4.415,4.433,4.451,4.469,4.505,4.542,4.598,4.656,4.716,4.777,4.839,4.882,4.925,4.97,4.992,5.037,5.037,5.037,5.015,5.015,4.992,4.97,4.97,4.97,4.97,4.97,4.97,4.992,5.015,5.015,5.037,5.084,5.107,5.154,5.179,5.179,5.203,5.227,5.252,0,0,5.277,5.252,5.227,5.203,5.179,5.179,5.154,5.154,5.154,5.131,5.154,5.179,5.179,5.179,5.154,5.154,5.154,5.154,5.154,5.131,5.131,5.131,5.154,5.154,5.131,5.084,5.06,5.037,5.015,5.015,4.992,4.97,4.97,4.992,4.992,4.992,4.97,4.97,4.947,4.97,5.015,5.015,5.015,5.015,5.037,5.084,5.131,5.154,5.131,5.107,5.107,5.084,5.084,5.06,5.06,5.037,5.015,5.015,5.037,5.06,5.06,5.06,5.037,5.037,5.037,5.015,5.015,4.992,4.992,4.97,4.947,4.947,4.925,4.925,4.925,4.904,4.904,4.904,4.882,4.882,4.861,4.839,4.818,4.818,4.797,4.818,4.818,4.818,4.839,4.861,4.882,4.882,4.904,4.925,4.925,4.947,4.947,4.947,4.947,4.947,4.925,4.925,4.904,4.904,4.904,4.904,4.904,4.904,4.904,4.904,4.904,4.882,4.882,4.904,4.904,4.925,4.925,4.925,4.947,4.947,4.947,4.947,4.947,4.925,4.925,4.904,4.904,4.882,4.882,4.882,4.882,4.882,4.882,4.882,4.882,4.861,4.861,4.861,4.839,4.839,4.839,4.839,4.839,4.818,4.839,4.839,4.861,4.882,4.904,4.904,4.925,4.947,4.947,4.947,4.947,4.947,4.947,4.947,4.947,4.947,4.947,4.947,4.947,4.947,4.947,4.947,4.947,4.97,4.97,4.97,4.97,4.97,4.97,4.97,4.947,4.97,4.97,4.947,4.947,4.947,4.947,4.947,4.947,4.947,4.947,4.947,4.947,4.947,4.97,4.97,4.97,4.97,4.992,4.992,4.992,5.015,5.015,5.037,5.037,5.037,5.037,5.015,5.015,5.015,4.992,4.97,4.947,4.925,4.904,4.904,4.904,4.882,4.861,4.861,4.839,4.839,4.818,4.818,4.797,4.797,4.797,4.777,4.777,4.777,4.777,4.777,4.777,4.777,4.777,4.777,4.777,4.777,4.777,4.777,4.797,4.797,4.818,4.818,4.839,4.839,4.861,4.861,4.882,4.882,4.904,4.904,4.904,4.904,4.904,4.904,4.904,4.904,4.904,4.904,4.904,4.904,4.904,4.904,4.904,4.904,4.904,4.904,4.904,4.904,4.882,4.882,4.882,4.882,4.882,4.904,4.904,4.904,4.904,4.904,4.904,4.882,4.882,4.861,4.839,4.818,4.818,4.797,4.777,4.756,4.736,4.696,4.676,4.656,4.637,4.618,4.579,4.561,4.523,4.487,4.469,4.433,4.398,4.363,4.346,4.329,4.312,4.295,4.295,4.279,4.279,4.279,4.262,4.246,4.23,4.214,4.198,4.182,4.151,4.135,4.12,4.104,4.089,4.074,4.059,4.045,4.03,4.001,3.972,3.958,3.93,3.902,3.875,3.848,3.835,3.808,3.782,3.769,3.757,3.731,3.719,3.706,3.694,3.682,3.67,3.657,3.645,3.633,3.61,3.598,3.575,3.563,3.541,3.529,3.507,3.496,3.474,3.452,3.442,3.42,3.41,3.389,3.379,3.368,3.358,3.338,3.328,3.328,3.318,3.298,3.288,3.279,3.259,3.25,3.231,3.222,3.212,3.194,3.185,3.166,3.157,3.139,3.131,3.113,3.096,3.087,3.07,3.061,3.053,3.045,3.036,3.028,3.02,3.011,3.003,2.995
0,0,0,0,0,0,0,0,4.598,4.561,4.542,4.505,4.487,4.433,4.398,4.38,4.346,4.312,4.295,4.279,4.279,4.279,4.279,4.295,4.295,4.312,4.312,4.329,4.346,4.346,4.346,4.363,4.363,4.346,4.346,4.346,4.346,4.346,4.346,4.346,4.363,4.363,4.363,4.38,4.38,4.38,4.38,4.38,4.38,4.363,4.363,4.363,4.363,4.363,4.363,4.346,4.346,4.329,4.329,4.329,4.329,4.329,4.312,4.312,4.312,4.312,4.312,4.312,4.295,4.295,4.295,4.295,4.295,4.295,4.295,4.295,4.295,4.295,4.312,4.312,4.329,4.329,4.329,4.346,4.346,4.363,4.363,4.363,4.38,4.398,4.415,4.433,4.451,4.469,4.505,4.542,4.598,4.656,4.716,4.797,4.861,4.925,4.992,5.037,5.06,5.084,5.107,5.107,5.107,5.084,5.084,5.06,5.06,5.06,5.06,5.06,5.06,5.084,5.084,5.107,5.154,5.203,5.252,5.302,5.354,5.354,5.38,5.432,5.459,0,0,5.513,5.513,5.486,5.459,5.432,0,0,0,0,5.38,5.406,5.406,5.406,5.432,5.406,5.406,5.406,0,0,0,5.354,5.38,5.38,5.354,0,5.277,5.252,5.227,5.203,5.203,5.179,5.154,5.154,5.154,5.154,5.154,5.154,5.131,5.107,5.154,5.179,5.179,0,5.227,5.252,5.277,5.328,5.354,5.354,5.302,5.302,5.277,5.252,5.227,5.227,5.203,5.203,5.203,5.203,5.227,5.227,5.227,5.227,5.227,5.203,5.179,5.154,5.154,5.131,5.107,5.084,5.084,5.06,5.06,5.037,5.037,5.037,5.015,5.015,4.992,4.992,4.97,4.947,4.947,4.947,4.947,4.97,4.97,4.992,5.015,5.015,5.037,5.06,5.06,5.06,5.06,5.06,5.06,5.06,5.06,5.037,5.037,5.015,5.015,5.015,5.015,5.015,5.015,5.015,5.015,5.015,4.992,4.992,5.015,5.015,5.037,5.037,5.037,5.06,5.06,5.06,5.06,5.06,5.037,5.015,5.015,5.015,4.992,4.992,4.992,4.992,4.992,4.992,4.97,4.97,4.97,4.97,4.97,4.97,4.947,4.947,4.925,4.925,4.925,4.947,4.947,4.97,4.97,4.992,5.015,5.037,5.037,5.037,5.037,5.037,5.037,5.037,5.037,5.037,5.015,5.015,5.015,5.015,5.015,5.015,5.015,5.015,5.015,5.015,5.015,5.015,5.015,5.037,5.037,5.037,5.037,5.037,5.037,5.037,5.037,5.037,5.037,5.037,5.037,5.037,5.037,5.037,5.037,5.037,5.037,5.06,5.06,5.06,5.06,5.084,5.084,5.107,5.131,5.131,5.131,5.131,5.131,5.107,5.107,5.084,5.06,5.037,5.015,4.992,4.97,4.97,4.947,4.925,4.904,4.882,4.882,4.882,4.861,4.861,4.839,4.839,4.839,4.839,4.839,4.839,4.839,4.839,4.839,4.839,4.818,4.818,4.839,4.839,4.839,4.861,4.861,4.861,4.861,4.861,4.882,4.882,4.904,4.904,4.904,4.925,4.925,4.925,4.925,4.947,4.925,4.925,4.925,4.925,4.925,4.904,4.904,4.904,4.925,4.904,4.904,4.904,4.904,4.904,4.904,4.904,4.904,4.904,4.904,4.904,4.904,4.904,4.904,4.904,4.904,4.904,4.882,4.882,4.861,4.839,4.839,4.818,4.797,4.777,4.756,4.736,4.716,4.696,4.656,4.637,4.618,4.598,4.561,4.523,4.505,4.469,4.433,4.398,4.363,4.346,4.329,4.312,4.295,4.295,4.279,4.279,4.279,4.262,4.246,4.23,4.214,4.198,4.182,4.151,4.135,4.12,4.104,4.089,4.074,4.045,4.03,4.015,4.001,3.986,3.958,3.944,3.916,3.888,3.861,3.835,3.808,3.795,3.769,3.757,3.744,3.719,3.719,3.706,3.682,3.67,3.657,3.645,3.622,3.61,3.586,3.575,3.563,3.541,3.529,3.507,3.496,3.474,3.452,3.442,3.42,3.41,3.389,3.379,3.368,3.358,3.338,3.328,3.328,3.318,3.308,3.288,3.279,3.269,3.25,3.231,3.222,3.212,3.194,3.175,3.166,3.148,3.131,3.122,3.113,3.096,3.087,3.07,3.061,3.053,3.045,3.036,3.028,3.02,3.011,3.003,2.995
0,0,0,0,0,0,0,0,4.598,4.579,4.542,4.523,4.487,4.451,4.415,4.38,4.346,4.312,4.295,4.279,4.279,4.279,4.295,4.295,4.295,4.312,4.329,4.329,4.363,4.363,4.363,4.363,4.363,4.363,4.363,4.363,4.363,4.363,4.363,4.363,4.363,4.363,4.363,4.38,4.38,4.38,4.38,4.38,4.38,4.363,4.363,4.363,4.346,4.346,4.346,4.329,4.329,4.329,4.329,4.329,4.329,4.312,4.312,4.312,4.312,4.312,4.312,4.312,4.295,4.295,4.295,4.295,4.295,4.295,4.295,4.295,4.295,4.295,4.295,4.295,4.312,4.312,4.329,4.329,4.329,4.346,4.346,4.363,4.38,4.398,4.415,4.433,4.451,4.469,4.505,4.542,4.598,4.656,4.736,4.797,4.861,4.925,4.992,5.06,5.084,5.131,5.154,5.179,5.179,5.154,5.154,5.154,5.131,5.131,5.131,5.131,5.131,5.154,5.179,5.203,5.252,5.328,5.38,5.432,5.513,5.513,5.569,5.625,5.683,5.712,5.742,5.772,5.742,5.772,5.742,5.712,5.683,0,0,0,5.654,5.654,5.654,5.683,5.683,5.712,5.683,0,5.683,0,5.654,5.654,5.625,5.597,5.569,5.541,5.513,5.459,5.432,0,5.406,5.38,5.354,5.354,5.354,5.354,5.354,5.328,5.302,5.328,5.328,0,0,0,5.459,5.459,0,0,5.597,5.569,5.541,5.513,5.486,5.459,5.432,5.406,5.406,5.38,5.38,5.38,5.406,5.406,5.406,5.406,5.406,5.38,5.38,5.354,5.302,5.302,5.252,5.227,5.203,5.203,5.179,5.154,5.154,5.154,5.131,5.131,5.107,5.107,5.084,5.084,5.084,5.06,5.084,5.107,5.107,5.131,5.131,5.154,5.154,5.179,5.179,5.179,5.179,5.203,5.203,5.179,5.179,5.154,5.154,5.131,5.131,5.131,5.131,5.131,5.131,5.131,5.131,5.131,5.107,5.107,5.131,5.131,5.154,5.154,5.154,5.179,5.179,5.179,5.179,5.179,5.154,5.131,5.131,5.131,5.107,5.107,5.084,5.084,5.084,5.084,5.107,5.107,5.084,5.107,5.107,5.084,5.06,5.037,5.037,5.015,5.037,5.037,5.06,5.06,5.084,5.107,5.131,5.131,5.154,5.154,5.154,5.154,5.154,5.154,5.131,5.131,5.131,5.107,5.107,5.107,5.107,5.084,5.084,5.084,5.084,5.084,5.107,5.107,5.107,5.107,5.107,5.107,5.131,5.131,5.131,5.131,5.131,5.131,5.131,5.131,5.131,5.131,5.131,5.131,5.131,5.131,5.154,5.154,5.154,5.154,5.154,5.179,5.203,5.203,5.227,5.227,5.227,5.227,5.227,5.227,5.203,5.179,5.179,5.154,5.107,5.107,5.084,5.06,5.037,5.015,5.015,4.992,4.97,4.97,4.947,4.947,4.925,4.925,4.925,4.904,4.904,4.904,4.904,4.904,4.904,4.904,4.904,4.904,4.925,4.925,4.925,4.925,4.947,4.947,4.947,4.947,4.947,4.947,4.947,4.97,4.97,4.97,4.97,4.97,4.97,4.97,4.97,4.97,4.97,4.97,4.97,4.97,4.97,4.97,4.97,4.947,4.947,4.947,4.947,4.947,4.947,4.925,4.925,4.925,4.925,4.925,4.925,4.904,4.904,4.904,4.904,4.904,4.882,4.882,4.861,4.839,4.839,4.818,4.797,4.777,4.756,4.736,4.716,4.696,4.676,4.656,4.637,4.598,4.579,4.542,4.505,4.487,4.451,4.415,4.38,4.363,4.329,4.329,4.312,4.295,4.295,4.279,4.279,4.279,4.246,4.23,4.214,4.198,4.182,4.151,4.135,4.12,4.089,4.074,4.059,4.045,4.03,4.015,4.001,3.986,3.958,3.944,3.916,3.888,3.875,3.848,3.821,3.795,3.782,3.757,3.744,3.731,3.719,3.694,3.682,3.67,3.657,3.633,3.622,3.598,3.586,3.575,3.563,3.541,3.529,3.507,3.496,3.474,3.452,3.442,3.42,3.41,3.389,3.379,3.368,3.358,3.338,3.328,3.328,3.318,3.308,3.288,3.279,3.269,3.25,3.231,3.222,3.203,3.185,3.166,3.157,3.148,3.131,3.113,3.104,3.096,3.087,3.07,3.061,3.053,3.045,3.036,3.028,3.028,3.02,3.003,2.995
0,0,0,0,0,0,0,0,4.618,4.579,4.542,4.523,4.505,4.451,4.415,4.38,4.346,4.329,4.312,4.295,4.279,4.279,4.295,4.295,4.295,4.312,4.329,4.346,4.363,4.38,4.38,4.38,4.38,4.38,4.38,4.363,4.363,4.363,4.363,4.363,4.363,4.363,4.38,4.38,4.38,4.38,4.38,4.363,4.363,4.346,4.346,4.346,4.329,4.329,4.329,4.329,4.312,4.312,4.312,4.312,4.312,4.312,4.312,4.312,4.312,4.312,4.312,4.312,4.295,4.295,4.295,4.295,4.295,4.279,4.279,4.279,4.295,4.295,4.295,4.295,4.295,4.295,4.312,4.329,4.329,4.329,4.329,4.346,4.363,4.38,4.398,4.415,4.451,4.469,4.505,4.542,4.598,4.656,4.716,4.797,4.861,4.947,5.015,5.06,5.107,5.154,5.203,5.203,5.227,5.203,5.203,5.203,5.203,5.179,5.203,5.203,5.203,5.227,5.252,5.302,5.354,5.432,5.513,5.597,5.654,5.712,5.772,5.864,5.926,5.99,6.023,6.056,6.056,6.056,6.056,6.023,6.023,5.99,5.958,5.958,5.926,5.926,5.958,5.99,6.023,6.023,5.99,0,0,5.99,5.926,5.926,5.895,5.864,5.833,5.772,5.742,5.683,5.654,5.625,5.597,5.569,5.569,5.541,5.541,5.541,5.541,5.541,5.513,5.541,5.541,5.597,5.625,0,5.683,5.712,5.772,5.802,5.833,5.802,5.772,5.742,5.683,5.654,5.625,5.597,5.569,5.541,5.541,5.569,5.569,5.597,5.597,5.569,5.569,5.541,5.541,5.513,5.459,5.432,5.406,5.38,5.354,5.328,5.302,5.277,5.252,5.252,5.227,5.227,5.227,5.203,5.203,5.179,5.179,5.203,5.203,5.227,5.227,5.252,5.277,5.277,5.302,5.302,5.328,5.302,5.328,5.302,5.302,5.302,5.302,5.277,5.277,5.277,5.252,5.252,5.252,5.252,5.252,5.252,5.252,5.252,5.252,5.252,5.252,5.252,5.277,5.277,5.277,5.302,5.302,5.302,5.302,5.302,5.277,5.277,5.252,5.252,5.227,5.227,5.227,5.227,5.227,5.227,5.252,5.227,5.227,5.252,5.227,5.227,5.203,5.179,5.179,5.179,5.154,5.179,5.179,5.203,5.203,5.227,5.252,5.277,5.277,5.302,5.302,5.277,5.302,5.277,5.277,5.277,5.252,5.252,5.227,5.203,5.203,5.203,5.203,5.203,5.203,5.179,5.203,5.203,5.203,5.203,5.203,5.203,5.227,5.227,5.227,5.252,5.252,5.252,5.252,5.252,5.277,5.252,5.252,5.277,5.252,5.277,5.277,5.277,5.277,5.277,5.302,5.302,5.328,5.328,5.354,5.354,5.354,5.354,5.328,5.354,5.328,5.302,5.277,5.252,5.252,5.227,5.203,5.179,5.154,5.131,5.107,5.107,5.084,5.06,5.037,5.037,5.015,5.015,5.015,5.015,5.015,5.015,4.992,4.992,4.992,4.992,4.992,4.992,4.992,4.992,5.015,5.015,5.037,5.037,5.037,5.037,5.037,5.037,5.037,5.037,5.037,5.037,5.037,5.015,5.015,5.015,5.015,5.015,5.015,5.015,5.015,5.015,5.015,5.015,5.015,5.015,4.992,4.992,4.992,4.992,4.992,4.97,4.97,4.947,4.947,4.947,4.925,4.925,4.925,4.904,4.904,4.904,4.882,4.882,4.861,4.839,4.839,4.818,4.797,4.777,4.756,4.736,4.716,4.696,4.676,4.656,4.637,4.618,4.579,4.561,4.523,4.487,4.469,4.433,4.398,4.363,4.346,4.329,4.312,4.295,4.295,4.279,4.279,4.262,4.246,4.23,4.214,4.182,4.166,4.151,4.12,4.104,4.089,4.059,4.045,4.045,4.015,4.015,3.986,3.972,3.958,3.944,3.916,3.902,3.875,3.848,3.821,3.808,3.782,3.757,3.744,3.731,3.706,3.694,3.682,3.67,3.645,3.633,3.61,3.598,3.586,3.575,3.552,3.541,3.529,3.507,3.485,3.474,3.452,3.442,3.42,3.41,3.389,3.379,3.368,3.358,3.338,3.338,3.328,3.318,3.308,3.288,3.279,3.269,3.25,3.24,3.222,3.203,3.185,3.166,3.157,3.139,3.131,3.113,3.104,3.087,3.087,3.07,3.061,3.053,3.045,3.036,3.036,3.028,3.02,3.011,2.995
0,0,0,0,0,0,0,0,4.598,4.579,4.542,4.523,4.487,4.451,4.415,4.38,4.346,4.312,4.295,4.279,4.279,4.279,4.279,4.295,4.295,4.312,4.329,4.363,4.363,4.38,4.38,4.398,4.398,4.398,4.38,4.38,4.38,4.38,4.38,4.38,4.38,4.38,4.38,4.38,4.38,4.38,4.363,4.363,4.346,4.346,4.329,4.329,4.312,4.312,4.312,4.295,4.295,4.295,4.295,4.295,4.295,4.295,4.295,4.295,4.295,4.312,4.312,4.312,4.295,4.295,4.295,4.295,4.295,4.295,4.279,4.279,4.279,4.295,4.295,4.295,4.295,4.295,4.295,4.312,4.312,4.329,4.329,4.329,4.346,4.38,4.398,4.415,4.433,4.469,4.505,4.542,4.598,4.656,4.716,4.797,4.861,4.947,5.015,5.084,5.131,5.179,5.227,5.227,5.252,5.252,5.252,5.227,5.227,5.227,5.227,5.227,5.252,5.277,5.302,5.328,5.406,5.486,5.597,5.683,5.772,5.833,5.926,5.99,6.089,6.157,6.191,6.226,6.261,6.261,6.261,6.261,6.226,6.226,6.191,6.157,6.157,6.191,6.191,6.226,6.261,6.261,6.297,6.297,6.297,6.261,6.226,6.191,6.157,6.123,6.089,6.023,5.99,5.926,5.895,5.864,5.833,5.833,5.802,5.772,5.772,5.772,5.772,5.772,5.772,5.772,5.802,5.833,5.895,5.895,5.926,5.99,6.023,6.089,6.089,6.056,6.023,5.958,5.895,5.864,5.833,5.802,5.742,5.712,5.683,5.712,5.712,5.742,5.712,5.712,5.712,5.683,5.683,5.625,5.597,5.541,5.513,5.486,5.459,5.432,5.406,5.38,5.354,5.354,5.354,5.328,5.328,5.302,5.302,5.302,5.302,5.328,5.354,5.38,5.38,5.406,5.406,5.432,5.432,5.459,5.459,5.459,5.459,5.432,5.432,5.432,5.432,5.406,5.406,5.406,5.38,5.38,5.38,5.38,5.38,5.38,5.38,5.38,5.38,5.38,5.38,5.38,5.406,5.406,5.432,5.432,5.432,5.459,5.459,5.432,5.432,5.406,5.406,5.38,5.38,5.38,5.354,5.38,5.38,5.38,5.38,5.38,5.38,5.406,5.406,5.38,5.38,5.38,5.354,5.328,5.354,5.354,5.354,5.38,5.38,5.406,5.432,5.459,5.459,5.459,5.459,5.459,5.459,5.432,5.432,5.406,5.406,5.38,5.38,5.354,5.354,5.354,5.328,5.328,5.328,5.328,5.328,5.328,5.328,5.328,5.328,5.328,5.354,5.38,5.38,5.38,5.38,5.406,5.406,5.406,5.406,5.406,5.406,5.406,5.406,5.406,5.432,5.406,5.432,5.432,5.432,5.432,5.459,5.486,5.486,5.486,5.513,5.486,5.486,5.486,5.486,5.432,5.432,5.406,5.354,5.354,5.328,5.302,5.277,5.227,5.227,5.203,5.203,5.179,5.154,5.131,5.131,5.131,5.107,5.107,5.107,5.107,5.107,5.084,5.084,5.084,5.084,5.084,5.084,5.084,5.107,5.107,5.131,5.154,5.154,5.154,5.154,5.131,5.131,5.131,5.107,5.107,5.107,5.084,5.084,5.084,5.084,5.084,5.084,5.084,5.084,5.084,5.084,5.084,5.084,5.06,5.06,5.06,5.06,5.037,5.037,5.015,4.992,4.992,4.992,4.97,4.97,4.947,4.925,4.925,4.904,4.904,4.904,4.882,4.861,4.839,4.818,4.818,4.777,4.777,4.756,4.736,4.716,4.696,4.676,4.656,4.637,4.618,4.598,4.561,4.542,4.505,4.469,4.451,4.415,4.38,4.363,4.329,4.312,4.312,4.295,4.279,4.279,4.262,4.246,4.23,4.198,4.182,4.151,4.135,4.12,4.089,4.074,4.059,4.045,4.03,4.015,4.001,3.986,3.972,3.958,3.944,3.916,3.902,3.875,3.848,3.835,3.808,3.782,3.757,3.744,3.719,3.706,3.694,3.67,3.657,3.645,3.622,3.61,3.598,3.586,3.563,3.552,3.541,3.518,3.507,3.485,3.474,3.452,3.442,3.42,3.41,3.389,3.379,3.368,3.358,3.348,3.338,3.328,3.318,3.308,3.298,3.279,3.269,3.25,3.24,3.222,3.203,3.185,3.175,3.157,3.139,3.131,3.113,3.104,3.087,3.087,3.07,3.061,3.053,3.045,3.036,3.036,3.028,3.02,3.011,3.003
0,0,0,0,0,0,0,0,4.579,4.561,4.523,4.505,4.487,4.451,4.415,4.38,4.346,4.312,4.295,4.279,4.279,4.279,4.279,4.279,4.295,4.312,4.329,4.363,4.38,4.38,4.398,4.398,4.415,4.415,4.398,4.398,4.398,4.398,4.398,4.38,4.38,4.38,4.38,4.38,4.38,4.38,4.363,4.363,4.346,4.329,4.329,4.312,4.312,4.295,4.295,4.279,4.279,4.279,4.279,4.279,4.295,4.295,4.295,4.295,4.295,4.312,4.312,4.312,4.312,4.295,4.295,4.295,4.295,4.295,4.295,4.279,4.279,4.279,4.279,4.295,4.295,4.295,4.295,4.312,4.312,4.312,4.329,4.329,4.346,4.363,4.38,4.415,4.433,4.469,4.505,4.542,4.579,4.637,4.716,4.777,4.861,4.925,5.015,5.084,5.154,5.203,5.227,5.252,5.252,5.252,5.252,5.252,5.252,5.252,5.252,5.252,5.277,5.277,5.328,5.38,5.432,5.513,5.625,5.712,5.802,5.864,5.926,6.023,6.089,6.157,6.191,6.226,6.226,6.261,6.297,6.297,6.297,6.297,6.297,6.297,6.333,6.333,6.333,6.369,6.406,6.406,6.443,6.443,6.481,6.481,6.443,6.443,6.406,6.369,6.333,6.261,6.226,6.191,6.123,6.123,6.089,6.056,6.056,6.023,6.023,6.023,6.023,6.023,6.023,6.023,6.089,6.123,6.157,6.191,6.226,6.261,6.297,6.369,6.333,6.297,6.226,6.191,6.123,6.056,6.023,5.958,5.895,5.864,5.833,5.833,5.833,5.864,5.833,5.833,5.802,5.802,5.772,5.712,5.683,5.654,5.625,5.597,5.569,5.541,5.513,5.486,5.486,5.486,5.459,5.432,5.432,5.432,5.432,5.432,5.459,5.459,5.486,5.513,5.513,5.541,5.569,5.569,5.597,5.597,5.597,5.625,5.597,5.597,5.597,5.597,5.569,5.569,5.541,5.541,5.541,5.541,5.541,5.541,5.541,5.541,5.541,5.541,5.513,5.513,5.541,5.541,5.541,5.569,5.569,5.569,5.597,5.597,5.597,5.569,5.569,5.541,5.541,5.541,5.513,5.513,5.513,5.513,5.513,5.541,5.541,5.541,5.569,5.569,5.597,5.569,5.569,5.569,5.569,5.541,5.569,5.569,5.569,5.569,5.569,5.597,5.625,5.625,5.625,5.654,5.625,5.625,5.625,5.597,5.597,5.597,5.569,5.541,5.541,5.513,5.513,5.486,5.486,5.486,5.486,5.486,5.486,5.486,5.486,5.486,5.486,5.513,5.513,5.513,5.541,5.541,5.541,5.541,5.569,5.569,5.569,5.569,5.569,5.569,5.569,5.569,5.569,5.569,5.569,5.597,5.597,5.597,5.597,5.625,5.625,5.625,5.654,5.625,5.625,5.597,5.597,5.569,5.541,5.541,5.513,5.486,5.459,5.432,5.406,5.38,5.354,5.328,5.302,5.302,5.277,5.252,5.252,5.227,5.227,5.227,5.227,5.227,5.227,5.203,5.203,5.203,5.203,5.227,5.227,5.227,5.227,5.227,5.252,5.252,5.252,5.277,5.252,5.252,5.252,5.227,5.203,5.203,5.203,5.179,5.154,5.154,5.154,5.154,5.154,5.154,5.154,5.154,5.154,5.154,5.154,5.154,5.131,5.107,5.107,5.084,5.084,5.06,5.06,5.037,5.015,5.015,4.992,4.97,4.947,4.925,4.925,4.904,4.904,4.882,4.861,4.839,4.818,4.818,4.777,4.777,4.756,4.736,4.716,4.696,4.676,4.656,4.637,4.618,4.598,4.579,4.542,4.523,4.487,4.469,4.433,4.398,4.363,4.346,4.329,4.312,4.295,4.279,4.262,4.246,4.23,4.214,4.198,4.166,4.151,4.12,4.104,4.089,4.059,4.045,4.03,4.015,4.001,3.986,3.972,3.972,3.958,3.93,3.916,3.888,3.875,3.848,3.835,3.808,3.782,3.757,3.744,3.719,3.706,3.682,3.67,3.657,3.633,3.622,3.61,3.586,3.575,3.563,3.552,3.529,3.518,3.507,3.485,3.463,3.452,3.431,3.42,3.41,3.389,3.379,3.368,3.358,3.338,3.338,3.328,3.318,3.308,3.298,3.288,3.269,3.259,3.24,3.231,3.203,3.194,3.175,3.157,3.139,3.131,3.113,3.104,3.096,3.087,3.07,3.061,3.053,3.045,3.045,3.036,3.028,3.02,3.011,3.003
0,0,0,0,0,0,0,0,4.561,4.542,4.505,4.487,4.469,4.433,4.398,4.363,4.329,4.312,4.295,4.279,4.262,4.279,4.279,4.279,4.295,4.312,4.329,4.346,4.363,4.38,4.398,4.415,4.415,4.415,4.415,4.415,4.415,4.398,4.398,4.398,4.38,4.38,4.38,4.38,4.38,4.363,4.346,4.346,4.329,4.312,4.312,4.295,4.279,4.279,4.279,4.279,4.262,4.262,4.262,4.262,4.279,4.279,4.295,4.295,4.295,4.312,4.312,4.312,4.312,4.295,4.295,4.295,4.295,4.295,4.295,4.279,4.279,4.279,4.279,4.279,4.295,4.295,4.295,4.295,4.312,4.312,4.329,4.329,4.346,4.363,4.38,4.398,4.433,4.451,4.487,4.523,4.579,4.637,4.696,4.777,4.839,4.925,4.992,5.06,5.131,5.179,5.227,5.252,5.277,5.277,5.277,5.277,5.277,5.277,5.252,5.277,5.277,5.302,5.328,5.354,5.432,5.513,5.597,5.712,5.772,5.864,5.926,5.99,6.089,6.123,6.191,6.191,6.191,6.226,6.261,6.297,6.297,6.297,6.333,6.333,6.333,6.406,6.406,6.443,6.443,6.481,6.519,6.519,6.519,6.519,6.481,6.443,6.406,6.406,6.369,6.333,6.297,6.261,6.226,6.226,6.226,6.191,6.191,6.157,6.157,6.123,6.157,6.157,6.157,6.157,6.191,6.226,6.261,6.333,6.333,6.369,6.406,6.443,6.406,6.369,6.333,6.261,6.226,6.157,6.123,6.056,5.99,5.958,5.926,5.926,5.926,5.926,5.926,5.895,5.864,5.864,5.833,5.772,5.772,5.712,5.683,5.654,5.625,5.597,5.569,5.569,5.569,5.541,5.541,5.541,5.541,5.541,5.541,5.569,5.597,5.625,5.654,5.683,5.683,5.683,5.712,5.712,5.742,5.742,5.742,5.742,5.742,5.772,5.772,5.742,5.742,5.742,5.712,5.712,5.712,5.712,5.712,5.712,5.712,5.712,5.712,5.683,5.683,5.683,5.683,5.683,5.683,5.712,5.712,5.712,5.742,5.742,5.742,5.742,5.712,5.683,5.683,5.683,5.683,5.654,5.654,5.683,5.683,5.683,5.712,5.742,5.742,5.742,5.772,5.772,5.772,5.772,5.772,5.772,5.772,5.772,5.772,5.772,5.802,5.802,5.802,5.802,5.833,5.802,5.802,5.802,5.772,5.772,5.772,5.772,5.742,5.712,5.712,5.683,5.683,5.654,5.654,5.654,5.625,5.625,5.625,5.625,5.625,5.654,5.654,5.654,5.683,5.683,5.683,5.712,5.712,5.712,5.712,5.742,5.742,5.742,5.742,5.712,5.712,5.712,5.712,5.712,5.712,5.712,5.712,5.742,5.742,5.742,5.742,5.742,5.742,5.742,5.742,5.742,5.742,5.712,5.712,5.683,5.654,5.625,5.597,5.597,5.541,5.513,5.486,5.459,5.459,5.432,5.406,5.38,5.354,5.354,5.354,5.328,5.354,5.354,5.354,5.354,5.328,5.354,5.354,5.354,5.354,5.354,5.354,5.38,5.38,5.38,5.406,5.406,5.38,5.354,5.354,5.328,5.328,5.302,5.277,5.252,5.252,5.252,5.252,5.227,5.227,5.227,5.227,5.227,5.227,5.227,5.227,5.203,5.203,5.179,5.179,5.154,5.154,5.131,5.107,5.084,5.06,5.037,5.015,4.992,4.97,4.947,4.925,4.904,4.904,4.882,4.861,4.839,4.818,4.818,4.797,4.777,4.756,4.736,4.716,4.696,4.676,4.676,4.656,4.637,4.618,4.598,4.561,4.542,4.505,4.469,4.433,4.398,4.38,4.346,4.329,4.295,4.279,4.262,4.246,4.23,4.214,4.198,4.182,4.166,4.135,4.12,4.089,4.074,4.059,4.045,4.03,4.015,4.001,3.986,3.972,3.958,3.944,3.93,3.902,3.888,3.861,3.848,3.821,3.808,3.782,3.757,3.731,3.719,3.694,3.682,3.67,3.645,3.633,3.622,3.598,3.586,3.575,3.563,3.541,3.529,3.518,3.496,3.485,3.463,3.452,3.431,3.42,3.399,3.389,3.379,3.368,3.358,3.338,3.328,3.328,3.318,3.308,3.298,3.288,3.269,3.259,3.25,3.231,3.212,3.194,3.175,3.166,3.148,3.131,3.122,3.104,3.096,3.087,3.078,3.07,3.061,3.053,3.045,3.036,3.028,3.02,3.011,3.003
0,0,0,0,0,0,0,0,0,4.505,4.487,4.469,4.451,4.415,4.398,4.363,4.329,4.312,4.295,4.279,4.279,4.279,4.279,4.279,4.295,4.312,4.329,4.346,4.363,4.38,4.398,4.415,4.415,4.415,4.415,4.415,4.415,4.415,4.415,4.398,4.398,4.398,4.38,4.38,4.363,4.346,4.346,4.329,4.312,4.295,4.279,4.279,4.262,4.262,4.262,4.262,4.246,4.262,4.262,4.262,4.279,4.295,4.295,4.295,4.312,4.312,4.312,4.312,4.312,4.312,4.295,4.295,4.295,4.295,4.295,4.295,4.295,4.279,4.279,4.279,4.295,4.295,4.295,4.295,4.312,4.312,4.329,4.329,4.346,4.363,4.38,4.398,4.433,4.451,4.487,4.523,4.561,4.618,4.676,4.756,4.839,4.904,4.992,5.06,5.131,5.179,5.227,5.252,5.277,5.277,5.277,5.277,5.277,5.277,5.277,5.277,5.277,5.302,5.328,5.354,5.432,5.513,5.597,5.683,5.772,5.833,5.895,5.958,6.023,6.123,6.123,6.157,6.157,6.191,6.191,6.226,6.261,6.261,6.261,6.297,6.333,6.369,6.406,6.406,6.481,6.519,6.519,6.519,6.519,6.519,6.519,6.481,6.443,6.406,6.406,6.369,6.333,6.297,6.261,6.261,6.226,6.261,6.261,6.226,6.191,6.191,6.226,6.226,6.226,6.226,6.261,6.297,6.333,6.333,6.369,6.369,6.406,6.443,6.443,6.406,6.369,6.333,6.261,6.226,6.191,6.123,6.056,6.023,6.023,5.99,5.99,5.958,5.958,5.958,5.926,5.895,5.864,5.833,5.802,5.772,5.742,5.712,5.654,5.625,5.597,5.597,5.597,5.569,5.569,5.597,5.597,5.597,5.625,5.654,5.654,5.712,5.742,5.742,5.772,5.802,5.802,5.833,5.802,5.833,5.833,5.833,5.833,5.833,5.833,5.833,5.833,5.833,5.833,5.833,5.802,5.833,5.833,5.833,5.802,5.802,5.802,5.802,5.772,5.772,5.772,5.772,5.772,5.802,5.802,5.833,5.833,5.833,5.833,5.833,5.833,5.802,5.802,5.802,5.802,5.802,5.802,5.833,5.833,5.864,5.895,5.895,5.926,5.926,5.958,5.958,5.958,5.958,5.958,5.958,5.99,5.99,5.99,5.99,5.99,5.99,5.99,5.99,5.99,5.99,5.958,5.958,5.958,5.926,5.926,5.895,5.895,5.864,5.864,5.833,5.833,5.802,5.802,5.802,5.802,5.772,5.772,5.772,5.802,5.802,5.802,5.833,5.833,5.833,5.833,5.833,5.864,5.864,5.864,5.864,5.864,5.864,5.864,5.864,5.864,5.864,5.864,5.864,5.864,5.864,5.833,5.833,5.864,5.864,5.864,5.864,5.864,5.833,5.833,5.864,5.833,5.833,5.833,5.802,5.772,5.772,5.742,5.742,5.683,5.683,5.654,5.625,5.597,5.569,5.541,5.541,5.513,5.486,5.486,5.486,5.486,5.486,5.486,5.486,5.486,5.486,5.486,5.513,5.513,5.513,5.513,5.513,5.513,5.541,5.541,5.513,5.513,5.486,5.459,5.459,5.432,5.406,5.38,5.38,5.354,5.328,5.328,5.328,5.328,5.328,5.328,5.302,5.302,5.302,5.302,5.277,5.277,5.252,5.227,5.203,5.203,5.179,5.154,5.107,5.084,5.084,5.06,5.015,4.992,4.97,4.947,4.925,4.904,4.882,4.861,4.839,4.818,4.818,4.797,4.777,4.756,4.756,4.736,4.696,4.696,4.676,4.656,4.637,4.618,4.598,4.579,4.561,4.523,4.487,4.451,4.415,4.38,4.346,4.329,4.295,4.279,4.246,4.23,4.214,4.198,4.182,4.166,4.151,4.12,4.104,4.089,4.059,4.045,4.03,4.015,4.001,3.986,3.972,3.972,3.958,3.944,3.916,3.902,3.875,3.861,3.835,3.821,3.795,3.769,3.757,3.731,3.706,3.694,3.682,3.657,3.645,3.622,3.61,3.598,3.586,3.563,3.552,3.541,3.529,3.507,3.496,3.485,3.463,3.452,3.431,3.42,3.399,3.389,3.379,3.368,3.358,3.338,3.328,3.328,3.318,3.308,3.298,3.288,3.279,3.259,3.25,3.231,3.222,3.203,3.185,3.166,3.157,3.139,3.122,3.113,3.104,3.087,3.078,3.07,3.061,3.053,3.045,3.036,3.028,3.02,3.011,3.003
0,0,0,0,0,0,0,0,0,4.469,4.451,4.433,4.415,4.415,4.363,4.346,4.329,4.295,4.295,4.279,4.279,4.279,4.279,4.295,4.295,4.312,4.329,4.346,4.363,4.38,4.38,4.415,4.415,4.415,4.415,4.415,4.415,4.415,4.415,4.415,4.398,4.398,4.38,4.38,4.363,4.346,4.329,4.312,4.312,4.295,4.279,4.262,4.262,4.262,4.262,4.246,4.246,4.262,4.262,4.279,4.295,4.295,4.295,4.312,4.312,4.312,4.329,4.329,4.312,4.312,4.295,4.295,4.295,4.295,4.295,4.295,4.295,4.295,4.295,4.295,4.295,4.295,4.295,4.312,4.312,4.312,4.329,4.329,4.346,4.363,4.38,4.398,4.433,4.451,4.487,4.523,4.561,4.598,4.676,4.736,4.818,4.904,4.97,5.06,5.131,5.179,5.227,5.252,5.277,5.277,5.277,5.277,5.277,5.277,5.277,5.277,5.277,5.302,5.328,5.354,5.432,5.486,5.597,5.683,5.772,5.802,5.864,5.926,5.99,6.023,6.056,6.089,6.089,6.089,6.123,6.191,6.191,6.226,6.261,6.261,6.297,6.333,6.369,6.406,6.443,6.481,6.519,6.557,6.557,6.519,6.519,6.481,6.443,6.443,6.406,6.406,6.369,6.333,6.297,6.297,6.297,6.297,6.297,6.261,6.261,6.297,6.297,6.297,6.297,6.297,6.333,6.333,6.369,6.369,6.369,6.406,6.406,6.443,6.443,6.406,6.406,6.369,6.333,6.261,6.226,6.191,6.123,6.089,6.089,6.056,6.056,6.023,6.023,5.99,5.958,5.926,5.895,5.895,5.864,5.802,5.772,5.742,5.712,5.683,5.654,5.625,5.625,5.625,5.597,5.597,5.625,5.625,5.654,5.683,5.712,5.712,5.772,5.772,5.802,5.833,5.833,5.864,5.864,5.895,5.895,5.895,5.895,5.895,5.895,5.895,5.895,5.864,5.864,5.864,5.895,5.895,5.864,5.864,5.864,5.864,5.833,5.833,5.833,5.833,5.833,5.833,5.833,5.833,5.864,5.864,5.864,5.895,5.895,5.895,5.895,5.895,5.895,5.895,5.895,5.926,5.926,5.926,5.958,5.99,6.023,6.023,6.056,6.056,6.089,6.123,6.123,6.123,6.157,6.191,6.191,6.191,6.226,6.191,6.191,6.191,6.191,6.191,6.157,6.157,6.123,6.123,6.089,6.089,6.056,6.056,6.023,6.023,6.023,5.99,5.99,5.958,5.958,5.958,5.926,5.926,5.926,5.926,5.958,5.958,5.958,5.958,5.99,5.99,5.99,5.99,5.99,5.99,5.99,5.99,5.99,5.99,5.99,5.99,5.99,5.99,5.958,5.958,5.958,5.958,5.958,5.958,5.958,5.958,5.958,5.958,5.958,5.926,5.926,5.926,5.926,5.895,5.895,5.895,5.895,5.864,5.833,5.833,5.802,5.772,5.772,5.742,5.712,5.712,5.683,5.654,5.654,5.625,5.625,5.625,5.625,5.625,5.625,5.625,5.625,5.625,5.654,5.654,5.683,5.683,5.654,5.683,5.683,5.683,5.683,5.683,5.654,5.625,5.597,5.569,5.541,5.541,5.486,5.459,5.459,5.432,5.432,5.406,5.406,5.406,5.406,5.406,5.406,5.406,5.406,5.38,5.354,5.328,5.302,5.277,5.252,5.227,5.203,5.154,5.131,5.107,5.084,5.037,5.015,4.992,4.97,4.925,4.904,4.882,4.861,4.861,4.839,4.818,4.797,4.777,4.756,4.756,4.736,4.716,4.696,4.696,4.676,4.656,4.637,4.618,4.598,4.561,4.523,4.487,4.469,4.415,4.38,4.346,4.329,4.295,4.262,4.246,4.23,4.198,4.182,4.166,4.151,4.135,4.104,4.089,4.074,4.059,4.045,4.015,4.001,3.986,3.972,3.972,3.958,3.944,3.93,3.916,3.888,3.875,3.861,3.835,3.808,3.795,3.769,3.744,3.731,3.706,3.694,3.67,3.657,3.645,3.622,3.61,3.598,3.575,3.563,3.552,3.541,3.518,3.507,3.496,3.474,3.463,3.442,3.42,3.41,3.399,3.389,3.368,3.358,3.348,3.338,3.328,3.318,3.318,3.308,3.298,3.288,3.279,3.259,3.25,3.231,3.222,3.203,3.185,3.175,3.157,3.139,3.131,3.122,3.104,3.096,3.087,3.07,3.061,3.053,3.045,3.036,3.028,3.02,3.011,2.995
0,0,0,0,0,0,0,0,0,4.433,4.415,4.398,4.398,4.363,4.363,4.329,4.312,4.295,4.295,4.279,4.279,4.279,4.279,4.279,4.295,4.312,4.312,4.329,4.346,4.363,4.38,4.398,4.415,4.415,4.415,4.415,4.433,4.415,4.415,4.415,4.398,4.38,4.38,4.38,4.363,4.329,4.329,4.312,4.295,4.295,4.279,4.279,4.262,4.262,4.262,4.262,4.262,4.279,4.279,4.295,4.295,4.312,4.312,4.312,4.329,4.329,4.329,4.329,4.312,4.312,4.295,4.295,4.295,4.295,4.295,4.295,4.295,4.295,4.295,4.295,4.295,4.295,4.295,4.312,4.312,4.329,4.329,4.329,4.346,4.363,4.398,4.398,4.433,4.451,4.487,4.523,4.561,4.598,4.656,4.736,4.818,4.882,4.97,5.037,5.131,5.179,5.227,5.252,5.277,5.277,5.302,5.277,5.277,5.277,5.277,5.277,5.302,5.302,5.328,5.38,5.432,5.513,5.597,5.654,5.712,5.772,5.833,5.895,5.926,5.958,5.958,5.99,5.99,6.023,6.056,6.123,6.157,6.191,6.226,6.261,6.297,6.333,6.369,6.406,6.443,6.481,6.481,6.519,6.519,6.519,6.519,6.481,6.443,6.443,6.406,6.406,6.369,6.333,6.333,6.297,6.333,6.333,6.333,6.333,6.333,6.333,6.333,6.369,6.369,6.369,6.369,6.369,6.406,6.406,6.406,6.406,6.443,6.443,6.443,6.406,6.406,6.369,6.369,6.297,6.261,6.226,6.191,6.157,6.123,6.123,6.089,6.056,6.056,6.023,5.99,5.958,5.926,5.895,5.864,5.833,5.802,5.772,5.742,5.712,5.683,5.683,5.654,5.654,5.654,5.654,5.654,5.683,5.683,5.712,5.742,5.772,5.772,5.833,5.833,5.864,5.864,5.895,5.895,5.926,5.926,5.926,5.926,5.926,5.926,5.926,5.926,5.926,5.926,5.926,5.926,5.926,5.926,5.926,5.895,5.895,5.895,5.864,5.864,5.864,5.864,5.864,5.864,5.864,5.864,5.895,5.895,5.895,5.895,5.926,5.926,5.926,5.926,5.958,5.958,5.958,5.99,6.023,6.023,6.056,6.056,6.089,6.123,6.157,6.191,6.226,6.261,6.297,6.297,6.333,6.369,6.369,6.369,6.369,6.369,6.333,6.333,6.333,6.297,6.297,6.261,6.261,6.261,6.226,6.191,6.191,6.157,6.157,6.157,6.123,6.123,6.089,6.089,6.089,6.089,6.089,6.089,6.089,6.089,6.089,6.089,6.123,6.123,6.123,6.123,6.123,6.123,6.123,6.123,6.123,6.123,6.123,6.123,6.089,6.089,6.089,6.089,6.089,6.089,6.056,6.056,6.056,6.056,6.056,6.023,6.023,6.023,6.023,6.023,5.99,5.99,5.99,5.99,5.958,5.958,5.958,5.958,5.926,5.895,5.895,5.864,5.864,5.833,5.802,5.772,5.772,5.772,5.742,5.742,5.742,5.742,5.742,5.772,5.772,5.772,5.772,5.802,5.802,5.802,5.833,5.833,5.802,5.833,5.833,5.833,5.833,5.802,5.772,5.742,5.712,5.683,5.654,5.625,5.569,5.541,5.541,5.541,5.513,5.513,5.513,5.513,5.513,5.486,5.486,5.486,5.459,5.432,5.406,5.38,5.354,5.302,5.252,5.227,5.203,5.154,5.131,5.084,5.06,5.037,4.992,4.97,4.947,4.925,4.882,4.882,4.861,4.839,4.818,4.797,4.777,4.777,4.756,4.736,4.716,4.696,4.696,4.676,4.656,4.637,4.618,4.598,4.579,4.542,4.505,4.469,4.433,4.38,4.346,4.312,4.295,4.262,4.23,4.214,4.198,4.166,4.151,4.135,4.12,4.089,4.074,4.059,4.045,4.03,4.015,4.001,3.986,3.972,3.958,3.944,3.944,3.916,3.902,3.888,3.875,3.848,3.835,3.808,3.782,3.769,3.744,3.719,3.706,3.682,3.67,3.657,3.633,3.622,3.61,3.586,3.575,3.563,3.552,3.529,3.518,3.507,3.485,3.474,3.452,3.442,3.42,3.399,3.389,3.379,3.368,3.358,3.348,3.338,3.328,3.318,3.308,3.308,3.298,3.288,3.269,3.259,3.25,3.24,3.222,3.203,3.185,3.175,3.157,3.148,3.139,3.122,3.104,3.096,3.087,3.07,3.061,3.053,3.045,3.036,3.02,3.011,3.003,2.995
0,0,0,0,0,0,0,0,0,0,4.38,4.363,4.363,4.363,4.346,4.312,4.312,4.295,4.295,4.295,4.279,4.279,4.279,4.295,4.295,4.312,4.312,4.329,4.346,4.363,4.38,4.398,4.415,4.415,4.415,4.415,4.415,4.415,4.415,4.398,4.398,4.38,4.38,4.363,4.346,4.329,4.312,4.312,4.295,4.295,4.279,4.279,4.279,4.279,4.279,4.279,4.279,4.295,4.295,4.312,4.329,4.329,4.329,4.329,4.329,4.329,4.329,4.329,4.312,4.312,4.295,4.295,4.295,4.295,4.295,4.295,4.295,4.295,4.295,4.295,4.295,4.312,4.312,4.329,4.329,4.329,4.329,4.346,4.363,4.38,4.398,4.415,4.433,4.469,4.487,4.523,4.561,4.598,4.656,4.716,4.797,4.882,4.947,5.037,5.107,5.179,5.227,5.252,5.277,5.277,5.302,5.302,5.302,5.302,5.277,5.302,5.328,5.328,5.354,5.38,5.432,5.513,5.597,5.654,5.712,5.772,5.802,5.864,5.895,5.895,5.926,5.926,5.958,5.958,5.99,6.056,6.089,6.157,6.191,6.226,6.261,6.333,6.369,6.406,6.443,6.443,6.481,6.519,6.519,6.519,6.481,6.481,6.443,6.443,6.443,6.406,6.406,6.369,6.333,6.333,6.369,6.369,6.369,6.369,6.369,6.369,6.406,6.406,6.406,6.406,6.406,6.443,6.443,6.406,6.406,6.406,6.443,6.443,6.443,6.406,6.406,6.369,6.369,6.333,6.297,6.261,6.226,6.226,6.191,6.157,6.123,6.123,6.089,6.056,6.023,5.99,5.958,5.926,5.895,5.833,5.833,5.802,5.742,5.742,5.712,5.712,5.712,5.683,5.683,5.683,5.683,5.712,5.742,5.742,5.772,5.802,5.802,5.833,5.864,5.864,5.895,5.895,5.895,5.926,5.926,5.926,5.926,5.958,5.958,5.958,5.958,5.958,5.958,5.958,5.958,5.958,5.958,5.958,5.926,5.926,5.926,5.895,5.864,5.864,5.864,5.864,5.864,5.864,5.864,5.895,5.895,5.926,5.926,5.926,5.926,5.958,5.958,5.99,5.99,5.99,6.023,6.056,6.089,6.089,6.123,6.157,6.191,6.226,6.297,6.297,6.369,6.406,6.443,6.481,6.519,6.519,6.519,6.519,6.519,6.519,6.519,6.481,6.481,6.443,6.406,6.406,6.369,6.369,6.333,6.333,6.297,6.297,6.261,6.261,6.261,6.226,6.226,6.226,6.226,6.226,6.226,6.226,6.226,6.261,6.261,6.261,6.261,6.261,6.261,6.261,6.261,6.261,6.261,6.261,6.261,6.226,6.226,6.226,6.191,6.191,6.191,6.157,6.157,6.123,6.123,6.123,6.123,6.123,6.089,6.089,6.089,6.089,6.056,6.056,6.056,6.056,6.023,6.023,6.023,6.023,6.023,6.023,5.99,5.99,5.958,5.958,5.926,5.926,5.895,5.895,5.864,5.864,5.864,5.864,5.864,5.864,5.864,5.895,5.895,5.895,5.926,5.926,5.926,5.958,5.958,5.926,5.958,5.958,5.958,5.926,5.895,5.895,5.864,5.802,5.772,5.742,5.712,5.683,5.654,5.625,5.625,5.597,5.597,5.597,5.597,5.569,5.569,5.541,5.541,5.513,5.486,5.432,5.406,5.38,5.328,5.302,5.252,5.227,5.179,5.131,5.107,5.084,5.037,5.015,4.97,4.947,4.925,4.904,4.882,4.861,4.839,4.818,4.818,4.797,4.777,4.756,4.756,4.736,4.716,4.696,4.676,4.676,4.637,4.618,4.598,4.579,4.542,4.505,4.469,4.433,4.38,4.346,4.312,4.279,4.246,4.214,4.198,4.182,4.166,4.135,4.12,4.104,4.089,4.074,4.059,4.045,4.03,4.001,3.986,3.972,3.972,3.958,3.944,3.93,3.916,3.902,3.875,3.861,3.835,3.821,3.795,3.782,3.757,3.744,3.719,3.706,3.682,3.67,3.645,3.633,3.622,3.61,3.586,3.575,3.563,3.552,3.529,3.518,3.496,3.485,3.463,3.452,3.431,3.41,3.399,3.379,3.368,3.368,3.358,3.348,3.338,3.328,3.318,3.308,3.298,3.288,3.279,3.269,3.259,3.25,3.24,3.222,3.203,3.194,3.175,3.166,3.148,3.139,3.122,3.113,3.096,3.087,3.07,3.061,3.053,3.045,3.028,3.02,3.011,3.003,2.995
0,0,0,0,0,0,0,0,0,0,4.363,4.346,4.346,4.346,4.329,4.312,4.295,4.295,4.295,4.295,4.295,4.295,4.295,4.295,4.295,4.312,4.312,4.329,4.329,4.363,4.363,4.38,4.398,4.398,4.415,4.415,4.415,4.398,4.398,4.38,4.38,4.363,4.363,4.346,4.329,4.312,4.312,4.295,4.295,4.279,4.279,4.279,4.279,4.279,4.295,4.295,4.312,4.312,4.329,4.329,4.346,4.363,4.363,4.363,4.346,4.346,4.346,4.329,4.329,4.312,4.295,4.295,4.295,4.295,4.295,4.295,4.295,4.295,4.295,4.312,4.312,4.329,4.329,4.329,4.329,4.346,4.346,4.363,4.38,4.398,4.398,4.433,4.451,4.469,4.505,4.523,4.561,4.598,4.656,4.716,4.797,4.882,4.947,5.037,5.107,5.179,5.227,5.277,5.277,5.302,5.302,5.302,5.328,5.328,5.328,5.328,5.354,5.354,5.38,5.406,5.459,5.541,5.597,5.654,5.742,5.772,5.802,5.864,5.895,5.895,5.926,5.926,5.926,5.958,5.99,6.023,6.056,6.123,6.157,6.226,6.261,6.297,6.333,6.369,6.406,6.443,6.481,6.481,6.519,6.519,6.481,6.443,6.443,6.443,6.443,6.406,6.406,6.369,6.369,6.369,6.369,6.406,6.406,6.406,6.406,6.406,6.406,6.406,6.443,6.443,6.443,6.443,6.443,6.406,6.406,6.406,6.443,6.481,6.443,6.443,6.406,6.406,6.406,6.369,6.369,6.333,6.297,6.297,6.261,6.226,6.191,6.191,6.157,6.089,6.056,6.023,5.99,5.926,5.895,5.864,5.833,5.802,5.772,5.742,5.742,5.742,5.712,5.712,5.712,5.712,5.712,5.742,5.742,5.772,5.772,5.833,5.833,5.864,5.864,5.895,5.895,5.926,5.926,5.926,5.958,5.958,5.958,5.958,5.99,5.99,5.99,5.99,5.99,5.99,5.99,5.99,5.99,5.99,5.958,5.958,5.926,5.926,5.895,5.864,5.864,5.864,5.864,5.864,5.895,5.895,5.895,5.926,5.926,5.926,5.958,5.958,5.99,5.99,6.023,6.023,6.056,6.089,6.123,6.157,6.191,6.226,6.261,6.297,6.369,6.406,6.443,6.519,6.557,6.597,6.636,6.636,6.676,6.676,6.676,6.676,6.636,6.636,6.597,6.597,6.557,6.519,6.481,6.443,6.443,6.406,6.406,6.369,6.369,6.369,6.369,6.369,6.369,6.369,6.369,6.369,6.369,6.369,6.406,6.406,6.406,6.406,6.406,6.406,6.406,6.406,6.406,6.369,6.369,6.369,6.333,6.333,6.333,6.297,6.297,6.261,6.261,6.261,6.226,6.226,6.226,6.191,6.191,6.191,6.191,6.157,6.157,6.123,6.123,6.123,6.089,6.089,6.089,6.089,6.089,6.056,6.056,6.056,6.056,6.056,6.056,6.023,5.99,5.99,5.958,5.958,5.958,5.958,5.926,5.958,5.958,5.958,5.958,5.958,5.99,5.99,6.023,6.023,6.023,6.056,6.023,6.023,6.023,6.023,6.023,5.99,5.99,5.958,5.926,5.895,5.864,5.833,5.802,5.772,5.742,5.712,5.683,5.683,5.683,5.683,5.654,5.625,5.597,5.597,5.569,5.541,5.513,5.459,5.432,5.406,5.354,5.328,5.277,5.227,5.203,5.154,5.107,5.084,5.06,5.015,4.992,4.97,4.947,4.925,4.904,4.861,4.861,4.839,4.818,4.797,4.777,4.777,4.756,4.736,4.716,4.696,4.676,4.676,4.656,4.618,4.598,4.579,4.542,4.505,4.469,4.433,4.38,4.346,4.312,4.279,4.246,4.214,4.198,4.182,4.151,4.135,4.12,4.104,4.089,4.074,4.059,4.03,4.015,4.001,3.986,3.972,3.958,3.944,3.93,3.916,3.902,3.888,3.861,3.848,3.821,3.808,3.782,3.769,3.757,3.731,3.719,3.694,3.682,3.67,3.645,3.633,3.622,3.61,3.586,3.575,3.563,3.552,3.529,3.518,3.496,3.485,3.463,3.442,3.431,3.41,3.389,3.379,3.368,3.358,3.348,3.338,3.338,3.328,3.318,3.308,3.298,3.288,3.279,3.269,3.259,3.25,3.231,3.222,3.203,3.194,3.175,3.166,3.148,3.139,3.122,3.113,3.096,3.087,3.07,3.061,3.053,3.045,3.028,3.02,3.011,3.003,2.987
0,0,0,0,0,0,0,0,0,0,4.346,4.346,4.329,4.329,4.329,4.312,4.312,4.295,4.295,4.295,4.295,4.295,4.295,4.295,4.312,4.312,4.312,4.329,4.346,4.363,4.363,4.38,4.398,4.398,4.398,4.398,4.398,4.38,4.38,4.363,4.363,4.346,4.329,4.329,4.312,4.312,4.295,4.279,4.279,4.279,4.279,4.279,4.295,4.312,4.312,4.329,4.329,4.346,4.346,4.363,4.38,4.38,4.38,4.38,4.363,4.363,4.363,4.346,4.329,4.312,4.295,4.295,4.295,4.295,4.295,4.295,4.295,4.295,4.312,4.312,4.312,4.329,4.329,4.346,4.346,4.363,4.363,4.38,4.38,4.398,4.415,4.433,4.451,4.469,4.505,4.523,4.561,4.598,4.656,4.716,4.797,4.882,4.97,5.037,5.107,5.179,5.227,5.277,5.277,5.302,5.302,5.328,5.328,5.328,5.354,5.354,5.354,5.38,5.406,5.432,5.486,5.541,5.597,5.654,5.712,5.772,5.802,5.864,5.864,5.895,5.895,5.895,5.895,5.926,5.958,5.99,6.056,6.089,6.123,6.191,6.226,6.297,6.333,6.333,6.406,6.406,6.443,6.481,6.481,6.481,6.443,6.443,6.406,6.406,6.406,6.406,6.406,6.406,6.406,6.406,6.406,6.406,6.406,6.406,6.406,6.443,6.443,6.443,6.443,6.481,6.443,6.443,6.443,6.443,6.406,6.406,6.443,6.443,6.443,6.443,6.406,6.406,6.406,6.406,6.406,6.369,6.369,6.333,6.333,6.297,6.297,6.261,6.226,6.157,6.089,6.056,5.99,5.958,5.926,5.864,5.833,5.833,5.802,5.772,5.772,5.742,5.742,5.742,5.742,5.742,5.742,5.742,5.772,5.802,5.802,5.833,5.864,5.864,5.864,5.895,5.926,5.926,5.926,5.958,5.958,5.958,5.958,5.99,5.99,5.99,5.99,5.99,5.99,5.99,5.99,5.99,5.99,5.99,5.99,5.958,5.958,5.926,5.895,5.895,5.864,5.864,5.864,5.864,5.864,5.895,5.895,5.926,5.926,5.926,5.958,5.958,5.958,5.99,6.023,6.023,6.056,6.089,6.123,6.191,6.226,6.261,6.297,6.369,6.443,6.481,6.557,6.597,6.676,6.716,6.757,6.757,6.757,6.799,6.799,6.757,6.757,6.757,6.716,6.676,6.636,6.597,6.557,6.557,6.519,6.481,6.481,6.481,6.481,6.443,6.443,6.443,6.443,6.443,6.443,6.481,6.481,6.519,6.519,6.519,6.519,6.519,6.519,6.481,6.481,6.481,6.481,6.443,6.443,6.406,6.406,6.369,6.369,6.369,6.333,6.333,6.333,6.297,6.297,6.297,6.261,6.261,6.226,6.226,6.226,6.191,6.191,6.191,6.157,6.157,6.157,6.157,6.157,6.123,6.123,6.123,6.123,6.123,6.089,6.089,6.089,6.089,6.089,6.056,6.056,6.023,6.023,6.023,6.023,6.023,6.023,6.023,6.023,6.056,6.056,6.056,6.089,6.089,6.089,6.089,6.089,6.089,6.089,6.089,6.089,6.056,6.023,6.023,5.99,5.958,5.926,5.895,5.864,5.833,5.802,5.772,5.742,5.742,5.742,5.712,5.683,5.654,5.625,5.625,5.597,5.569,5.513,5.486,5.459,5.406,5.38,5.328,5.277,5.227,5.203,5.154,5.131,5.084,5.06,5.037,4.992,4.97,4.947,4.925,4.904,4.882,4.861,4.839,4.818,4.797,4.797,4.777,4.756,4.736,4.716,4.696,4.676,4.656,4.637,4.618,4.598,4.561,4.542,4.505,4.469,4.433,4.38,4.346,4.312,4.279,4.246,4.214,4.198,4.182,4.166,4.135,4.12,4.104,4.089,4.074,4.045,4.03,4.015,4.001,3.986,3.972,3.958,3.944,3.93,3.902,3.888,3.875,3.848,3.835,3.821,3.795,3.782,3.769,3.744,3.731,3.719,3.694,3.682,3.67,3.657,3.633,3.622,3.61,3.586,3.575,3.563,3.552,3.529,3.518,3.496,3.485,3.463,3.442,3.431,3.41,3.389,3.379,3.368,3.358,3.348,3.338,3.328,3.318,3.308,3.298,3.288,3.279,3.269,3.259,3.25,3.24,3.231,3.212,3.203,3.194,3.175,3.166,3.148,3.139,3.122,3.113,3.096,3.087,3.078,3.061,3.053,3.045,3.028,3.02,3.003,2.995,2.987
0,0,0,0,0,0,0,0,0,0,4.346,4.346,4.329,4.329,4.329,4.312,4.312,4.312,4.312,4.312,4.312,4.312,4.312,4.312,4.312,4.312,4.329,4.329,4.346,4.363,4.363,4.38,4.38,4.38,4.38,4.38,4.38,4.363,4.363,4.346,4.329,4.329,4.312,4.312,4.295,4.295,4.279,4.279,4.279,4.279,4.295,4.312,4.312,4.329,4.329,4.346,4.363,4.363,4.38,4.38,4.398,4.415,4.398,4.398,4.38,4.38,4.363,4.346,4.329,4.312,4.295,4.295,4.279,4.295,4.295,4.295,4.295,4.295,4.312,4.312,4.329,4.329,4.346,4.346,4.363,4.363,4.38,4.38,4.398,4.415,4.433,4.433,4.451,4.487,4.505,4.523,4.561,4.618,4.676,4.736,4.797,4.882,4.97,5.037,5.107,5.179,5.227,5.252,5.302,5.302,5.328,5.328,5.328,5.354,5.354,5.354,5.38,5.406,5.406,5.459,5.486,5.541,5.597,5.654,5.712,5.772,5.802,5.864,5.895,5.895,5.895,5.926,5.926,5.958,5.99,6.023,6.056,6.089,6.123,6.191,6.226,6.261,6.297,6.333,6.369,6.406,6.443,6.443,6.481,6.481,6.443,6.406,6.406,6.406,6.406,6.406,6.406,6.406,6.406,6.406,6.406,6.443,6.443,6.443,6.443,6.443,6.443,6.443,6.443,6.443,6.443,6.443,6.443,6.406,6.406,6.406,6.406,6.443,6.443,6.443,6.406,6.443,6.443,6.443,6.443,6.443,6.443,6.406,6.406,6.406,6.369,6.333,6.261,6.191,6.123,6.089,6.023,5.99,5.926,5.895,5.864,5.833,5.833,5.802,5.802,5.772,5.772,5.772,5.772,5.772,5.772,5.772,5.772,5.802,5.833,5.833,5.833,5.864,5.895,5.895,5.895,5.926,5.926,5.958,5.958,5.958,5.99,5.99,5.99,5.99,5.99,5.99,6.023,6.023,6.023,6.023,6.023,6.023,5.99,5.99,5.958,5.926,5.895,5.895,5.864,5.864,5.864,5.864,5.864,5.895,5.895,5.895,5.926,5.926,5.958,5.958,5.99,5.99,6.023,6.056,6.089,6.123,6.157,6.191,6.261,6.297,6.333,6.406,6.481,6.557,6.597,6.676,6.716,6.757,6.799,6.799,6.841,6.841,6.841,6.841,6.799,6.799,6.757,6.716,6.676,6.636,6.636,6.597,6.557,6.557,6.519,6.481,6.481,6.481,6.481,6.481,6.481,6.481,6.519,6.519,6.557,6.557,6.557,6.597,6.597,6.597,6.597,6.557,6.557,6.519,6.519,6.481,6.481,6.443,6.443,6.406,6.406,6.369,6.369,6.369,6.333,6.333,6.297,6.297,6.297,6.297,6.297,6.261,6.261,6.261,6.226,6.226,6.191,6.191,6.191,6.191,6.157,6.157,6.157,6.157,6.157,6.157,6.157,6.157,6.157,6.157,6.123,6.123,6.123,6.123,6.089,6.123,6.089,6.089,6.089,6.123,6.123,6.123,6.157,6.123,6.157,6.157,6.157,6.157,6.157,6.157,6.123,6.123,6.123,6.123,6.089,6.089,6.056,5.99,5.99,5.958,5.926,5.895,5.864,5.833,5.802,5.772,5.772,5.742,5.712,5.683,5.654,5.625,5.597,5.569,5.513,5.486,5.432,5.406,5.354,5.328,5.277,5.227,5.203,5.154,5.131,5.084,5.06,5.037,5.015,4.97,4.947,4.947,4.925,4.882,4.861,4.839,4.818,4.818,4.797,4.777,4.756,4.736,4.716,4.696,4.676,4.656,4.637,4.618,4.598,4.561,4.523,4.505,4.469,4.415,4.38,4.346,4.312,4.279,4.246,4.23,4.214,4.182,4.166,4.151,4.12,4.104,4.089,4.074,4.059,4.03,4.015,4.001,3.986,3.972,3.958,3.944,3.916,3.902,3.888,3.861,3.848,3.835,3.808,3.795,3.782,3.757,3.744,3.731,3.706,3.694,3.682,3.67,3.657,3.633,3.622,3.61,3.598,3.575,3.563,3.552,3.529,3.518,3.496,3.474,3.463,3.442,3.42,3.41,3.389,3.379,3.368,3.358,3.348,3.338,3.328,3.318,3.308,3.298,3.288,3.279,3.269,3.259,3.24,3.231,3.222,3.203,3.194,3.185,3.175,3.157,3.148,3.139,3.122,3.113,3.096,3.087,3.07,3.061,3.053,3.045,3.028,3.011,3.003,2.995,2.987
0,0,0,0,0,0,0,0,0,4.363,4.346,4.346,4.329,4.346,4.329,4.329,4.312,4.329,4.329,4.329,4.329,4.329,4.329,4.329,4.329,4.329,4.329,4.329,4.346,4.363,4.363,4.363,4.38,4.38,4.363,4.363,4.363,4.346,4.329,4.329,4.312,4.295,4.295,4.295,4.279,4.279,4.279,4.279,4.279,4.279,4.312,4.312,4.329,4.329,4.346,4.363,4.38,4.398,4.415,4.415,4.415,4.415,4.415,4.398,4.398,4.38,4.363,4.346,4.329,4.312,4.295,4.295,4.279,4.295,4.295,4.295,4.295,4.295,4.312,4.329,4.329,4.329,4.346,4.363,4.363,4.363,4.38,4.398,4.398,4.415,4.433,4.451,4.469,4.487,4.505,4.542,4.579,4.618,4.676,4.736,4.818,4.904,4.97,5.037,5.131,5.179,5.227,5.277,5.302,5.302,5.328,5.328,5.354,5.354,5.354,5.38,5.406,5.406,5.432,5.459,5.513,5.541,5.625,5.683,5.742,5.772,5.833,5.864,5.926,5.926,5.958,5.958,5.958,5.99,6.056,6.056,6.089,6.123,6.157,6.157,6.226,6.261,6.297,6.297,6.369,6.369,6.406,6.443,6.443,6.443,6.406,6.406,6.369,6.369,6.369,6.406,6.406,6.406,6.406,6.406,6.443,6.443,6.481,6.481,6.443,6.443,6.443,6.443,6.443,6.443,6.443,6.443,6.406,6.406,6.406,6.369,6.406,6.443,6.443,6.443,6.443,6.443,6.481,6.481,6.481,6.519,6.481,6.481,6.481,6.443,6.443,6.406,6.333,6.261,6.191,6.123,6.056,6.023,5.958,5.926,5.895,5.864,5.833,5.833,5.802,5.802,5.772,5.772,5.772,5.772,5.772,5.772,5.802,5.802,5.833,5.833,5.833,5.864,5.864,5.895,5.895,5.895,5.926,5.926,5.958,5.958,5.958,5.958,5.99,5.99,5.99,6.023,6.023,6.023,6.023,6.023,6.023,5.99,5.99,5.99,5.958,5.926,5.895,5.895,5.864,5.864,5.864,5.864,5.895,5.895,5.895,5.926,5.926,5.926,5.958,5.958,5.99,6.023,6.056,6.056,6.089,6.123,6.157,6.226,6.297,6.333,6.406,6.443,6.519,6.557,6.636,6.676,6.757,6.799,6.799,6.841,6.883,6.883,6.883,6.883,6.841,6.799,6.799,6.757,6.716,6.676,6.636,6.597,6.597,6.557,6.519,6.519,6.519,6.519,6.519,6.519,6.519,6.519,6.557,6.557,6.597,6.597,6.597,6.597,6.597,6.597,6.597,6.557,6.557,6.557,6.519,6.481,6.481,6.443,6.443,6.406,6.406,6.369,6.369,6.333,6.333,6.333,6.333,6.333,6.297,6.297,6.297,6.297,6.297,6.261,6.261,6.261,6.261,6.226,6.226,6.226,6.226,6.226,6.226,6.226,6.226,6.226,6.226,6.226,6.226,6.191,6.226,6.191,6.191,6.191,6.191,6.191,6.157,6.157,6.191,6.191,6.191,6.191,6.226,6.191,6.226,6.226,6.226,6.226,6.226,6.191,6.191,6.191,6.191,6.157,6.157,6.123,6.089,6.056,6.023,5.99,5.958,5.926,5.895,5.864,5.833,5.802,5.802,5.772,5.742,5.683,5.683,5.625,5.597,5.569,5.513,5.486,5.432,5.406,5.354,5.328,5.277,5.227,5.203,5.154,5.131,5.107,5.06,5.037,5.015,4.992,4.947,4.947,4.925,4.904,4.882,4.861,4.839,4.818,4.797,4.777,4.756,4.736,4.716,4.696,4.656,4.656,4.618,4.598,4.579,4.542,4.523,4.487,4.451,4.415,4.38,4.346,4.312,4.279,4.262,4.23,4.214,4.198,4.166,4.151,4.135,4.12,4.089,4.074,4.059,4.045,4.03,4.015,4.001,3.972,3.958,3.944,3.916,3.902,3.875,3.861,3.848,3.821,3.808,3.795,3.769,3.757,3.744,3.731,3.706,3.694,3.682,3.67,3.657,3.645,3.622,3.61,3.598,3.586,3.563,3.552,3.529,3.518,3.496,3.474,3.463,3.442,3.431,3.41,3.389,3.379,3.368,3.358,3.348,3.338,3.328,3.318,3.308,3.298,3.288,3.279,3.269,3.25,3.24,3.222,3.212,3.203,3.185,3.175,3.166,3.157,3.139,3.139,3.122,3.113,3.096,3.087,3.07,3.061,3.053,3.045,3.028,3.011,3.003,2.987,2.979
0,0,0,0,0,0,0,0,0,4.363,4.363,4.346,4.346,4.346,4.346,4.346,4.329,4.346,4.346,4.346,4.346,4.346,4.346,4.346,4.346,4.346,4.346,4.346,4.363,4.363,4.363,4.363,4.363,4.363,4.363,4.346,4.346,4.329,4.329,4.312,4.295,4.295,4.279,4.279,4.279,4.279,4.279,4.279,4.279,4.295,4.312,4.329,4.346,4.363,4.38,4.398,4.415,4.415,4.433,4.433,4.433,4.451,4.433,4.415,4.398,4.38,4.363,4.346,4.329,4.312,4.295,4.295,4.295,4.295,4.295,4.295,4.295,4.312,4.312,4.329,4.329,4.346,4.363,4.363,4.363,4.38,4.38,4.398,4.415,4.433,4.451,4.451,4.469,4.487,4.523,4.542,4.579,4.637,4.696,4.756,4.818,4.904,4.992,5.06,5.131,5.203,5.227,5.277,5.302,5.328,5.328,5.328,5.354,5.354,5.38,5.38,5.406,5.432,5.459,5.486,5.513,5.569,5.654,5.712,5.772,5.802,5.864,5.926,5.958,5.99,5.99,6.023,6.023,6.056,6.089,6.123,6.123,6.123,6.157,6.191,6.226,6.261,6.297,6.297,6.369,6.369,6.369,6.406,6.443,6.443,6.406,6.369,6.369,6.369,6.369,6.406,6.406,6.406,6.406,6.406,6.443,6.443,6.481,6.481,6.443,6.443,6.443,6.443,6.481,6.481,6.481,6.481,6.443,6.443,6.406,6.406,6.406,6.443,6.443,6.443,6.443,6.443,6.481,6.519,6.557,6.557,6.557,6.519,6.557,6.519,6.481,6.443,6.406,6.333,6.261,6.191,6.123,6.056,5.99,5.958,5.926,5.895,5.864,5.833,5.833,5.802,5.802,5.772,5.772,5.772,5.772,5.802,5.802,5.833,5.833,5.833,5.833,5.864,5.864,5.864,5.895,5.895,5.895,5.895,5.926,5.926,5.958,5.958,5.958,5.99,5.99,5.99,5.99,6.023,6.023,6.023,6.023,6.023,5.99,5.958,5.958,5.926,5.895,5.895,5.895,5.895,5.864,5.895,5.895,5.895,5.895,5.926,5.926,5.958,5.958,5.99,6.023,6.023,6.056,6.089,6.123,6.157,6.191,6.261,6.297,6.369,6.443,6.519,6.557,6.636,6.676,6.757,6.757,6.799,6.841,6.841,6.883,6.883,6.883,6.883,6.841,6.841,6.799,6.757,6.716,6.716,6.676,6.636,6.597,6.597,6.597,6.557,6.557,6.557,6.557,6.557,6.557,6.557,6.557,6.597,6.597,6.597,6.597,6.597,6.597,6.597,6.597,6.557,6.557,6.519,6.519,6.481,6.481,6.443,6.443,6.406,6.369,6.369,6.369,6.369,6.333,6.333,6.333,6.333,6.333,6.333,6.297,6.333,6.333,6.297,6.297,6.297,6.297,6.261,6.261,6.261,6.261,6.261,6.261,6.261,6.261,6.261,6.261,6.297,6.297,6.261,6.297,6.261,6.261,6.261,6.261,6.261,6.226,6.226,6.261,6.261,6.261,6.261,6.261,6.261,6.261,6.261,6.297,6.261,6.261,6.261,6.226,6.226,6.226,6.191,6.191,6.157,6.123,6.089,6.056,6.023,5.99,5.958,5.895,5.895,5.864,5.833,5.802,5.772,5.742,5.712,5.683,5.654,5.597,5.569,5.541,5.486,5.459,5.406,5.354,5.328,5.277,5.252,5.203,5.179,5.131,5.107,5.084,5.06,5.015,4.992,4.97,4.947,4.925,4.904,4.882,4.861,4.839,4.818,4.797,4.777,4.756,4.736,4.716,4.676,4.656,4.637,4.618,4.598,4.579,4.542,4.505,4.487,4.451,4.415,4.398,4.363,4.329,4.295,4.279,4.246,4.23,4.214,4.182,4.166,4.151,4.135,4.104,4.089,4.074,4.059,4.03,4.015,4.001,3.986,3.958,3.944,3.916,3.902,3.875,3.861,3.848,3.821,3.808,3.782,3.769,3.757,3.744,3.731,3.706,3.694,3.682,3.67,3.657,3.645,3.633,3.61,3.598,3.586,3.563,3.552,3.529,3.518,3.496,3.474,3.463,3.442,3.431,3.41,3.399,3.379,3.368,3.358,3.348,3.338,3.328,3.318,3.308,3.298,3.288,3.269,3.259,3.25,3.231,3.222,3.203,3.194,3.185,3.175,3.157,3.148,3.139,3.131,3.122,3.113,3.096,3.087,3.07,3.061,3.053,3.045,3.028,3.011,3.003,2.987,2.979
0,0,0,0,0,0,0,0,0,4.38,4.38,4.363,4.363,4.363,4.363,4.346,4.346,4.346,4.363,4.363,4.363,4.363,4.363,4.363,4.363,4.363,4.363,4.363,4.363,4.363,4.363,4.363,4.363,4.363,4.363,4.346,4.329,4.329,4.312,4.295,4.295,4.279,4.279,4.279,4.279,4.279,4.279,4.279,4.295,4.312,4.329,4.346,4.363,4.38,4.398,4.415,4.415,4.433,4.451,4.451,4.451,4.451,4.433,4.415,4.398,4.38,4.363,4.346,4.329,4.312,4.295,4.295,4.295,4.295,4.295,4.295,4.295,4.312,4.329,4.329,4.329,4.346,4.363,4.363,4.363,4.38,4.398,4.415,4.415,4.433,4.451,4.451,4.469,4.505,4.523,4.542,4.579,4.637,4.696,4.756,4.839,4.925,4.992,5.06,5.154,5.203,5.252,5.277,5.302,5.328,5.328,5.354,5.354,5.38,5.38,5.406,5.432,5.432,5.459,5.513,5.541,5.597,5.654,5.742,5.772,5.833,5.895,5.926,5.99,6.023,6.056,6.056,6.089,6.123,6.123,6.157,6.191,6.191,6.191,6.226,6.261,6.297,6.297,6.297,6.333,6.369,6.369,6.406,6.406,6.406,6.406,6.369,6.369,6.369,6.369,6.406,6.406,6.406,6.406,6.443,6.443,6.481,6.481,6.481,6.481,6.481,6.481,6.481,6.481,6.481,6.481,6.481,6.443,6.443,6.443,6.443,6.443,6.481,6.481,6.481,6.481,6.481,6.519,6.557,6.597,6.597,6.597,6.597,6.597,6.597,6.557,6.519,6.443,6.369,6.297,6.226,6.157,6.089,6.023,5.99,5.958,5.926,5.895,5.864,5.833,5.833,5.802,5.802,5.772,5.772,5.772,5.802,5.802,5.833,5.833,5.833,5.833,5.833,5.864,5.864,5.864,5.864,5.895,5.895,5.895,5.895,5.926,5.926,5.958,5.958,5.958,5.958,5.958,5.99,5.99,6.023,6.023,5.99,5.99,5.958,5.958,5.926,5.926,5.895,5.895,5.895,5.895,5.895,5.895,5.926,5.926,5.926,5.958,5.958,5.99,5.99,6.023,6.056,6.089,6.123,6.157,6.191,6.226,6.261,6.333,6.406,6.481,6.519,6.597,6.636,6.716,6.757,6.799,6.841,6.841,6.883,6.883,6.883,6.883,6.883,6.841,6.841,6.799,6.757,6.716,6.716,6.676,6.676,6.636,6.636,6.597,6.597,6.597,6.597,6.597,6.597,6.557,6.597,6.597,6.597,6.636,6.636,6.636,6.636,6.636,6.597,6.597,6.557,6.557,6.519,6.519,6.481,6.443,6.443,6.406,6.369,6.369,6.369,6.333,6.333,6.333,6.333,6.333,6.333,6.369,6.333,6.333,6.333,6.333,6.333,6.333,6.333,6.333,6.297,6.297,6.297,6.297,6.297,6.297,6.297,6.297,6.297,6.297,6.333,6.333,6.333,6.333,6.333,6.333,6.333,6.333,6.333,6.297,6.297,6.297,6.333,6.333,6.297,6.333,6.297,6.333,6.333,6.297,6.297,6.297,6.297,6.261,6.261,6.261,6.226,6.191,6.191,6.157,6.089,6.056,6.023,5.99,5.958,5.926,5.895,5.864,5.833,5.802,5.772,5.742,5.712,5.683,5.625,5.597,5.569,5.513,5.486,5.459,5.406,5.38,5.328,5.277,5.252,5.203,5.179,5.131,5.107,5.084,5.06,5.037,4.992,4.97,4.947,4.925,4.904,4.882,4.861,4.839,4.818,4.797,4.777,4.756,4.736,4.696,4.676,4.656,4.637,4.618,4.579,4.561,4.542,4.505,4.469,4.451,4.415,4.38,4.363,4.329,4.295,4.279,4.262,4.246,4.23,4.214,4.182,4.166,4.151,4.12,4.104,4.089,4.059,4.045,4.03,4.001,3.986,3.972,3.944,3.916,3.902,3.875,3.861,3.835,3.821,3.795,3.782,3.769,3.757,3.744,3.719,3.706,3.694,3.682,3.67,3.657,3.645,3.633,3.61,3.598,3.586,3.563,3.552,3.529,3.518,3.496,3.485,3.463,3.442,3.431,3.41,3.399,3.389,3.368,3.358,3.348,3.338,3.328,3.318,3.308,3.298,3.279,3.269,3.259,3.25,3.231,3.212,3.203,3.194,3.185,3.166,3.157,3.148,3.131,3.131,3.122,3.113,3.096,3.087,3.07,3.061,3.053,3.045,3.028,3.011,2.995,2.987,2.979
0,0,0,0,0,0,0,0,0,4.398,4.38,4.38,4.38,4.38,4.38,4.38,4.363,4.363,4.363,4.38,4.38,4.38,4.398,4.38,4.38,4.38,4.38,4.38,4.38,4.363,4.363,4.363,4.363,4.363,4.346,4.329,4.329,4.312,4.312,4.295,4.279,4.279,4.279,4.279,4.279,4.279,4.279,4.279,4.295,4.312,4.329,4.363,4.363,4.38,4.398,4.415,4.433,4.451,4.451,4.451,4.451,4.451,4.433,4.415,4.398,4.38,4.363,4.329,4.329,4.312,4.295,4.295,4.295,4.295,4.295,4.295,4.312,4.312,4.329,4.329,4.346,4.346,4.363,4.363,4.38,4.38,4.398,4.415,4.415,4.433,4.451,4.469,4.487,4.505,4.523,4.561,4.598,4.656,4.716,4.777,4.839,4.925,4.992,5.084,5.154,5.203,5.252,5.302,5.328,5.328,5.354,5.354,5.38,5.406,5.406,5.432,5.459,5.459,5.486,5.541,5.569,5.625,5.712,5.772,5.833,5.864,5.926,5.99,6.056,6.089,6.123,6.123,6.157,6.157,6.191,6.226,6.226,6.191,6.226,6.226,6.261,6.261,6.297,6.297,6.333,6.333,6.369,6.406,6.406,6.406,6.406,6.369,6.369,6.369,6.369,6.406,6.443,6.443,6.443,6.443,6.481,6.481,6.481,6.481,6.481,6.481,6.481,6.481,6.481,6.481,6.481,6.481,6.481,6.481,6.481,6.443,6.443,6.481,6.481,6.481,6.481,6.519,6.519,6.557,6.636,6.636,6.636,6.636,6.676,6.676,6.636,6.597,6.519,6.443,6.369,6.297,6.191,6.123,6.056,6.023,5.958,5.926,5.895,5.864,5.864,5.833,5.833,5.802,5.802,5.802,5.802,5.833,5.833,5.833,5.833,5.833,5.833,5.833,5.833,5.833,5.833,5.864,5.864,5.895,5.895,5.895,5.895,5.926,5.926,5.958,5.958,5.958,5.958,5.958,5.99,5.99,5.99,5.99,5.99,5.958,5.958,5.958,5.926,5.926,5.895,5.895,5.895,5.926,5.926,5.926,5.958,5.958,5.99,5.99,6.023,6.023,6.056,6.089,6.089,6.123,6.157,6.191,6.261,6.297,6.369,6.406,6.481,6.557,6.636,6.676,6.716,6.757,6.799,6.841,6.841,6.841,6.883,6.883,6.841,6.841,6.841,6.799,6.799,6.757,6.716,6.716,6.676,6.676,6.636,6.636,6.636,6.636,6.636,6.636,6.597,6.597,6.636,6.636,6.636,6.636,6.636,6.636,6.636,6.636,6.597,6.597,6.557,6.557,6.519,6.519,6.481,6.443,6.443,6.406,6.406,6.369,6.369,6.369,6.369,6.333,6.333,6.333,6.369,6.369,6.369,6.369,6.369,6.369,6.369,6.333,6.333,6.333,6.333,6.333,6.333,6.333,6.333,6.333,6.333,6.333,6.333,6.369,6.369,6.369,6.406,6.406,6.406,6.406,6.406,6.406,6.406,6.406,6.406,6.369,6.369,6.369,6.369,6.369,6.369,6.369,6.369,6.369,6.369,6.333,6.333,6.333,6.297,6.261,6.261,6.226,6.226,6.191,6.157,6.123,6.089,6.056,6.023,5.958,5.926,5.895,5.864,5.833,5.802,5.772,5.742,5.712,5.683,5.625,5.597,5.569,5.513,5.486,5.432,5.406,5.38,5.328,5.302,5.252,5.227,5.179,5.154,5.131,5.084,5.06,5.037,5.015,4.992,4.947,4.947,4.925,4.882,4.861,4.839,4.818,4.797,4.777,4.736,4.716,4.696,4.676,4.656,4.618,4.598,4.579,4.561,4.523,4.505,4.469,4.451,4.415,4.398,4.363,4.329,4.312,4.295,4.279,4.262,4.246,4.214,4.198,4.182,4.151,4.135,4.12,4.089,4.074,4.045,4.03,4.015,3.986,3.972,3.958,3.93,3.902,3.875,3.861,3.835,3.821,3.795,3.782,3.757,3.757,3.731,3.719,3.706,3.694,3.682,3.67,3.657,3.645,3.633,3.61,3.598,3.586,3.563,3.552,3.529,3.518,3.496,3.485,3.463,3.452,3.431,3.42,3.399,3.389,3.379,3.358,3.348,3.338,3.328,3.318,3.308,3.298,3.279,3.269,3.259,3.24,3.231,3.212,3.203,3.194,3.175,3.166,3.157,3.148,3.131,3.122,3.122,3.113,3.096,3.087,3.07,3.061,3.053,3.045,3.028,3.011,2.995,2.987,2.979
0,0,0,0,0,0,0,0,0,4.415,4.415,4.398,4.398,4.398,4.398,4.398,4.38,4.38,4.398,4.398,4.398,4.398,4.398,4.398,4.398,4.398,4.398,4.398,4.398,4.38,4.38,4.363,4.363,4.363,4.346,4.329,4.329,4.312,4.312,4.295,4.279,4.279,4.279,4.279,4.279,4.279,4.279,4.295,4.312,4.312,4.329,4.363,4.38,4.38,4.398,4.415,4.433,4.451,4.451,4.451,4.451,4.451,4.415,4.415,4.398,4.363,4.346,4.329,4.329,4.295,4.295,4.295,4.295,4.295,4.295,4.295,4.312,4.312,4.329,4.329,4.346,4.346,4.363,4.363,4.363,4.38,4.398,4.415,4.415,4.433,4.451,4.469,4.487,4.505,4.523,4.561,4.598,4.656,4.716,4.777,4.861,4.925,5.015,5.084,5.154,5.227,5.277,5.328,5.354,5.38,5.38,5.406,5.432,5.432,5.459,5.486,5.513,5.513,5.541,5.569,5.597,5.654,5.712,5.772,5.864,5.926,5.958,6.023,6.123,6.157,6.191,6.191,6.226,6.226,6.261,6.261,6.261,6.226,6.226,6.226,6.261,6.297,6.297,6.297,6.333,6.333,6.369,6.406,6.406,6.406,6.406,6.406,6.369,6.406,6.406,6.443,6.443,6.443,6.481,6.481,6.481,6.519,6.519,6.519,6.481,6.519,6.519,6.519,6.519,6.519,6.519,6.519,6.519,6.519,6.481,6.481,6.481,6.519,6.519,6.519,6.519,6.519,6.557,6.597,6.676,6.676,6.716,6.716,6.757,6.757,6.716,6.636,6.597,6.519,6.406,6.333,6.226,6.157,6.089,6.056,5.99,5.958,5.926,5.926,5.895,5.864,5.864,5.833,5.833,5.833,5.833,5.833,5.833,5.833,5.864,5.864,5.864,5.864,5.864,5.864,5.864,5.864,5.864,5.895,5.895,5.895,5.895,5.926,5.926,5.926,5.958,5.958,5.958,5.958,5.958,5.958,5.99,5.99,5.958,5.958,5.958,5.958,5.926,5.926,5.926,5.926,5.926,5.926,5.958,5.958,5.99,5.99,5.99,6.023,6.023,6.056,6.089,6.123,6.123,6.157,6.191,6.226,6.297,6.333,6.406,6.443,6.519,6.557,6.636,6.676,6.716,6.757,6.799,6.799,6.841,6.841,6.841,6.841,6.841,6.799,6.799,6.799,6.757,6.757,6.757,6.716,6.716,6.716,6.676,6.676,6.676,6.636,6.636,6.636,6.636,6.676,6.636,6.636,6.636,6.636,6.636,6.636,6.636,6.636,6.636,6.597,6.557,6.519,6.519,6.481,6.481,6.443,6.406,6.406,6.369,6.369,6.369,6.369,6.333,6.369,6.369,6.333,6.369,6.369,6.369,6.369,6.369,6.369,6.369,6.369,6.369,6.369,6.369,6.369,6.333,6.369,6.369,6.369,6.369,6.369,6.369,6.406,6.406,6.443,6.443,6.443,6.443,6.481,6.481,6.481,6.481,6.443,6.443,6.443,6.443,6.443,6.443,6.443,6.406,6.406,6.406,6.406,6.406,6.369,6.369,6.333,6.297,6.297,6.261,6.261,6.226,6.191,6.157,6.123,6.089,6.056,5.99,5.958,5.926,5.895,5.833,5.802,5.802,5.772,5.742,5.712,5.654,5.625,5.597,5.569,5.513,5.486,5.432,5.406,5.38,5.328,5.302,5.252,5.227,5.203,5.154,5.131,5.107,5.06,5.037,5.015,4.992,4.97,4.947,4.925,4.904,4.861,4.839,4.818,4.797,4.777,4.736,4.716,4.696,4.676,4.637,4.618,4.598,4.579,4.561,4.523,4.505,4.487,4.451,4.415,4.398,4.38,4.346,4.329,4.312,4.295,4.279,4.262,4.23,4.214,4.198,4.166,4.151,4.12,4.104,4.074,4.059,4.03,4.015,4.001,3.972,3.958,3.93,3.902,3.888,3.861,3.835,3.821,3.795,3.782,3.757,3.744,3.731,3.719,3.706,3.694,3.682,3.67,3.657,3.645,3.633,3.61,3.598,3.586,3.563,3.552,3.529,3.518,3.507,3.485,3.474,3.452,3.442,3.42,3.41,3.399,3.379,3.368,3.348,3.338,3.328,3.318,3.308,3.288,3.279,3.269,3.259,3.24,3.231,3.212,3.203,3.185,3.175,3.166,3.157,3.148,3.131,3.131,3.122,3.113,3.096,3.087,3.07,3.061,3.053,3.045,3.028,3.011,2.995,2.987,2.979
0,0,0,0,0,0,0,0,0,0,4.433,4.415,4.415,4.415,4.398,4.398,4.398,4.398,4.415,4.415,4.415,4.415,4.415,4.415,4.415,4.398,4.398,4.398,4.398,4.398,4.38,4.38,4.363,4.363,4.346,4.329,4.329,4.312,4.312,4.295,4.295,4.279,4.279,4.279,4.295,4.295,4.295,4.295,4.312,4.329,4.346,4.363,4.38,4.38,4.398,4.415,4.433,4.451,4.451,4.433,4.433,4.415,4.415,4.398,4.363,4.363,4.329,4.329,4.312,4.295,4.295,4.295,4.295,4.295,4.295,4.312,4.312,4.312,4.329,4.329,4.346,4.346,4.363,4.363,4.363,4.38,4.398,4.398,4.415,4.433,4.451,4.469,4.487,4.505,4.523,4.561,4.598,4.637,4.716,4.777,4.861,4.947,5.015,5.084,5.179,5.252,5.302,5.354,5.38,5.406,5.406,5.432,5.459,5.486,5.486,5.513,5.541,5.569,5.597,5.625,5.654,5.712,5.742,5.802,5.864,5.926,5.99,6.056,6.157,6.191,6.226,6.261,6.261,6.261,6.297,6.261,6.261,6.226,6.226,6.261,6.261,6.297,6.297,6.297,6.297,6.333,6.369,6.406,6.406,6.406,6.406,6.406,6.406,6.406,6.443,6.481,6.481,6.519,6.519,6.519,6.519,6.519,6.519,6.519,6.481,6.519,6.519,6.519,6.557,6.557,6.557,6.557,6.557,6.557,6.557,6.519,6.519,6.519,6.557,6.519,6.557,6.557,6.597,6.636,6.716,6.757,6.799,6.799,6.799,6.799,6.799,6.716,6.676,6.557,6.481,6.369,6.297,6.226,6.157,6.089,6.056,6.023,5.99,5.958,5.926,5.895,5.895,5.895,5.864,5.864,5.864,5.864,5.864,5.864,5.864,5.864,5.864,5.864,5.864,5.864,5.864,5.864,5.895,5.895,5.895,5.895,5.895,5.926,5.926,5.926,5.926,5.958,5.958,5.958,5.958,5.958,5.958,5.958,5.958,5.958,5.958,5.958,5.958,5.958,5.958,5.958,5.958,5.99,5.99,6.023,6.023,6.023,6.056,6.056,6.089,6.089,6.123,6.157,6.157,6.191,6.226,6.261,6.333,6.369,6.406,6.481,6.519,6.557,6.636,6.676,6.716,6.757,6.799,6.799,6.799,6.799,6.799,6.799,6.799,6.799,6.757,6.757,6.757,6.716,6.716,6.716,6.716,6.676,6.676,6.676,6.676,6.676,6.676,6.676,6.676,6.676,6.676,6.676,6.676,6.676,6.676,6.636,6.636,6.636,6.597,6.557,6.519,6.519,6.481,6.481,6.443,6.443,6.406,6.406,6.369,6.369,6.369,6.369,6.333,6.369,6.369,6.369,6.369,6.369,6.406,6.406,6.406,6.406,6.369,6.369,6.369,6.406,6.369,6.369,6.369,6.369,6.369,6.406,6.406,6.406,6.406,6.443,6.481,6.481,6.481,6.519,6.519,6.519,6.519,6.519,6.519,6.519,6.519,6.481,6.519,6.519,6.481,6.481,6.481,6.443,6.443,6.443,6.406,6.406,6.369,6.369,6.333,6.297,6.297,6.261,6.226,6.191,6.157,6.123,6.056,6.023,5.99,5.926,5.895,5.864,5.833,5.802,5.772,5.742,5.712,5.683,5.654,5.625,5.597,5.569,5.513,5.486,5.432,5.406,5.38,5.328,5.302,5.277,5.227,5.203,5.154,5.131,5.107,5.084,5.06,5.037,4.992,4.97,4.947,4.925,4.904,4.882,4.839,4.818,4.797,4.777,4.756,4.716,4.696,4.676,4.637,4.618,4.598,4.579,4.561,4.542,4.505,4.487,4.451,4.433,4.415,4.398,4.363,4.346,4.329,4.312,4.295,4.262,4.246,4.23,4.198,4.182,4.151,4.135,4.104,4.089,4.059,4.045,4.015,4.001,3.986,3.958,3.93,3.902,3.888,3.861,3.848,3.821,3.795,3.782,3.757,3.757,3.744,3.719,3.706,3.694,3.682,3.67,3.657,3.645,3.633,3.61,3.598,3.586,3.575,3.552,3.541,3.518,3.507,3.496,3.474,3.463,3.442,3.431,3.41,3.399,3.389,3.368,3.358,3.338,3.328,3.318,3.308,3.298,3.279,3.269,3.259,3.25,3.231,3.212,3.203,3.194,3.175,3.166,3.157,3.148,3.139,3.131,3.122,3.113,3.096,3.087,3.07,3.061,3.053,3.045,3.028,3.011,3.003,2.987,2.979
0,0,0,0,0,0,0,0,0,0,4.433,4.433,4.415,4.433,4.415,4.415,4.415,4.415,4.415,4.433,4.433,4.433,4.433,4.433,4.415,4.415,4.415,4.398,4.398,4.398,4.398,4.38,4.363,4.363,4.346,4.329,4.329,4.329,4.312,4.312,4.312,4.295,4.295,4.295,4.295,4.312,4.312,4.312,4.329,4.329,4.363,4.363,4.38,4.38,4.398,4.415,4.415,4.433,4.433,4.415,4.415,4.415,4.398,4.38,4.363,4.346,4.329,4.312,4.312,4.295,4.295,4.295,4.295,4.295,4.312,4.312,4.312,4.329,4.329,4.329,4.346,4.346,4.363,4.363,4.38,4.38,4.398,4.398,4.415,4.433,4.451,4.469,4.487,4.505,4.542,4.561,4.598,4.637,4.696,4.777,4.861,4.947,5.015,5.107,5.179,5.252,5.328,5.38,5.406,5.432,5.459,5.486,5.513,5.541,5.569,5.597,5.597,5.625,5.654,5.654,5.683,5.742,5.772,5.802,5.864,5.926,5.958,6.023,6.123,6.191,6.226,6.261,6.297,6.297,6.297,6.297,6.297,6.261,6.261,6.261,6.261,6.297,6.297,6.297,6.297,6.333,6.369,6.406,6.406,6.406,6.443,6.443,6.443,6.443,6.481,6.519,6.557,6.557,6.557,6.557,6.557,6.557,6.557,6.519,6.519,6.557,6.557,6.557,6.597,6.597,6.597,6.636,6.636,6.636,6.597,6.557,6.557,6.557,6.597,6.557,6.557,6.597,6.636,6.676,6.757,6.799,6.841,6.841,6.883,6.841,6.841,6.799,6.716,6.597,6.519,6.406,6.333,6.261,6.191,6.123,6.089,6.056,6.023,5.99,5.958,5.958,5.926,5.926,5.926,5.926,5.895,5.926,5.926,5.926,5.926,5.895,5.895,5.895,5.895,5.895,5.895,5.895,5.895,5.895,5.895,5.926,5.926,5.926,5.958,5.958,5.958,5.958,5.958,5.958,5.958,5.958,5.99,5.99,5.99,5.99,5.99,5.99,5.99,5.99,5.99,5.99,5.99,6.023,6.023,6.056,6.056,6.056,6.089,6.089,6.123,6.123,6.157,6.191,6.191,6.226,6.261,6.297,6.369,6.369,6.443,6.481,6.519,6.597,6.597,6.676,6.716,6.716,6.716,6.757,6.757,6.757,6.757,6.757,6.757,6.757,6.757,6.757,6.757,6.716,6.716,6.716,6.716,6.716,6.716,6.716,6.716,6.716,6.716,6.716,6.716,6.716,6.676,6.676,6.676,6.676,6.676,6.636,6.636,6.597,6.557,6.557,6.519,6.481,6.481,6.443,6.443,6.406,6.406,6.406,6.369,6.369,6.369,6.369,6.369,6.369,6.369,6.369,6.369,6.369,6.406,6.406,6.406,6.406,6.406,6.406,6.406,6.406,6.369,6.406,6.406,6.406,6.406,6.406,6.443,6.443,6.481,6.481,6.519,6.557,6.557,6.557,6.597,6.597,6.597,6.597,6.597,6.597,6.597,6.557,6.557,6.557,6.557,6.519,6.519,6.481,6.481,6.481,6.481,6.443,6.443,6.406,6.369,6.333,6.297,6.261,6.226,6.191,6.157,6.089,6.023,5.99,5.958,5.926,5.895,5.833,5.802,5.802,5.772,5.742,5.712,5.683,5.654,5.625,5.569,5.541,5.513,5.486,5.459,5.406,5.38,5.354,5.302,5.277,5.252,5.203,5.179,5.131,5.107,5.084,5.06,5.037,5.015,4.97,4.947,4.925,4.904,4.882,4.839,4.818,4.797,4.777,4.756,4.736,4.696,4.676,4.656,4.637,4.598,4.579,4.561,4.542,4.523,4.487,4.469,4.451,4.415,4.398,4.38,4.363,4.346,4.312,4.295,4.279,4.262,4.23,4.214,4.182,4.151,4.135,4.104,4.089,4.059,4.045,4.015,4.001,3.986,3.958,3.93,3.902,3.888,3.861,3.848,3.821,3.795,3.782,3.769,3.757,3.744,3.731,3.719,3.706,3.682,3.67,3.657,3.645,3.633,3.622,3.598,3.586,3.575,3.563,3.541,3.529,3.518,3.496,3.485,3.474,3.452,3.431,3.42,3.41,3.389,3.379,3.358,3.348,3.328,3.318,3.308,3.298,3.288,3.269,3.259,3.25,3.231,3.222,3.203,3.194,3.185,3.175,3.166,3.157,3.148,3.131,3.122,3.113,3.096,3.087,3.078,3.061,3.053,3.045,3.028,3.011,3.003,2.987,2.979
0,0,0,0,0,0,0,0,0,0,4.451,4.433,4.433,4.433,4.415,4.415,4.415,4.415,4.415,4.433,4.433,4.433,4.433,4.433,4.415,4.415,4.415,4.398,4.398,4.398,4.398,4.38,4.38,4.363,4.363,4.346,4.346,4.329,4.329,4.329,4.329,4.312,4.312,4.312,4.329,4.329,4.329,4.329,4.329,4.346,4.363,4.38,4.38,4.38,4.398,4.415,4.415,4.415,4.415,4.415,4.398,4.398,4.38,4.363,4.346,4.329,4.329,4.312,4.295,4.295,4.295,4.295,4.295,4.312,4.312,4.312,4.312,4.329,4.329,4.346,4.346,4.363,4.363,4.363,4.38,4.38,4.398,4.415,4.415,4.433,4.451,4.469,4.487,4.505,4.542,4.561,4.598,4.637,4.696,4.777,4.861,4.947,5.015,5.107,5.203,5.277,5.354,5.406,5.459,5.486,5.513,5.541,5.569,5.597,5.625,5.654,5.683,5.712,5.712,5.712,5.742,5.742,5.802,5.802,5.864,5.895,5.926,5.99,6.089,6.123,6.191,6.226,6.261,6.297,6.333,6.333,6.333,6.261,6.261,6.261,6.297,6.297,6.333,6.333,6.333,6.333,6.369,6.406,6.443,6.443,6.443,6.443,6.481,6.481,6.519,6.557,6.597,6.597,6.597,6.557,6.557,6.557,6.557,6.557,6.557,6.557,6.557,6.597,6.597,6.636,6.636,6.636,6.636,6.636,6.636,6.597,6.597,6.597,6.597,6.597,6.597,6.636,6.676,6.716,6.757,6.841,6.883,6.883,6.926,6.883,6.883,6.799,6.716,6.636,6.557,6.443,6.369,6.297,6.261,6.191,6.157,6.123,6.089,6.056,6.023,6.023,5.99,5.99,5.99,5.99,5.99,5.99,5.958,5.958,5.958,5.958,5.926,5.926,5.926,5.895,5.895,5.926,5.926,5.926,5.926,5.926,5.958,5.958,5.958,5.958,5.958,5.958,5.99,5.99,5.99,5.99,5.99,5.99,5.99,5.99,5.99,6.023,6.023,6.023,6.023,6.056,6.056,6.056,6.089,6.089,6.089,6.123,6.123,6.123,6.157,6.157,6.191,6.226,6.261,6.261,6.333,6.333,6.369,6.406,6.443,6.519,6.557,6.557,6.636,6.636,6.676,6.716,6.716,6.716,6.716,6.716,6.716,6.716,6.716,6.716,6.716,6.716,6.716,6.716,6.716,6.716,6.716,6.716,6.716,6.757,6.757,6.757,6.757,6.757,6.716,6.716,6.716,6.716,6.716,6.676,6.636,6.636,6.597,6.597,6.557,6.519,6.481,6.481,6.443,6.443,6.406,6.406,6.406,6.369,6.369,6.369,6.369,6.369,6.369,6.369,6.369,6.406,6.406,6.406,6.406,6.406,6.406,6.406,6.406,6.406,6.406,6.406,6.406,6.406,6.406,6.406,6.443,6.443,6.481,6.481,6.519,6.519,6.557,6.597,6.597,6.636,6.636,6.636,6.676,6.676,6.636,6.636,6.597,6.597,6.597,6.597,6.597,6.557,6.557,6.519,6.519,6.519,6.481,6.481,6.443,6.443,6.369,6.333,6.297,6.261,6.226,6.191,6.123,6.056,6.023,5.99,5.926,5.926,5.864,5.833,5.802,5.772,5.742,5.742,5.712,5.683,5.654,5.625,5.569,5.541,5.513,5.486,5.459,5.406,5.38,5.354,5.302,5.277,5.252,5.203,5.179,5.154,5.131,5.084,5.06,5.037,5.015,4.992,4.947,4.925,4.904,4.882,4.861,4.818,4.797,4.777,4.756,4.736,4.696,4.676,4.656,4.637,4.618,4.598,4.579,4.542,4.523,4.505,4.469,4.451,4.433,4.415,4.38,4.363,4.346,4.329,4.312,4.295,4.262,4.246,4.214,4.182,4.166,4.135,4.12,4.089,4.074,4.045,4.03,4.001,3.986,3.958,3.93,3.916,3.888,3.861,3.848,3.821,3.795,3.782,3.769,3.757,3.744,3.731,3.719,3.706,3.694,3.67,3.657,3.645,3.633,3.622,3.61,3.586,3.575,3.563,3.541,3.529,3.518,3.507,3.485,3.474,3.452,3.442,3.42,3.41,3.399,3.379,3.368,3.348,3.338,3.328,3.308,3.298,3.288,3.279,3.259,3.25,3.24,3.231,3.212,3.203,3.194,3.185,3.175,3.157,3.148,3.139,3.131,3.113,3.104,3.096,3.078,3.07,3.053,3.045,3.028,3.011,3.003,2.995,2.979
0,0,0,0,0,0,0,0,0,4.469,4.451,4.433,4.433,4.415,4.415,4.415,4.415,4.415,4.415,4.415,4.415,4.415,4.433,4.415,4.415,4.415,4.415,4.398,4.398,4.398,4.398,4.398,4.38,4.363,4.363,4.363,4.363,4.346,4.346,4.346,4.346,4.329,4.329,4.329,4.329,4.329,4.329,4.329,4.346,4.363,4.363,4.363,4.38,4.38,4.398,4.398,4.398,4.398,4.398,4.398,4.38,4.38,4.363,4.346,4.329,4.329,4.312,4.295,4.295,4.295,4.295,4.295,4.295,4.312,4.312,4.312,4.329,4.329,4.329,4.346,4.363,4.363,4.363,4.38,4.38,4.398,4.398,4.415,4.433,4.433,4.469,4.469,4.487,4.505,4.542,4.561,4.598,4.637,4.696,4.756,4.839,4.925,5.015,5.107,5.203,5.277,5.354,5.432,5.486,5.513,5.541,5.597,5.625,5.654,5.683,5.712,5.742,5.772,5.772,5.772,5.772,5.802,5.802,5.833,5.833,5.864,5.895,5.926,6.023,6.089,6.157,6.191,6.261,6.297,6.333,6.333,6.333,6.261,6.261,6.261,6.297,6.297,6.333,6.297,6.333,6.333,6.406,6.406,6.443,6.443,6.481,6.481,6.519,6.557,6.597,6.636,6.636,6.636,6.636,6.636,6.636,6.636,6.597,6.597,6.597,6.597,6.597,6.636,6.636,6.636,6.636,6.636,6.636,6.676,6.636,6.597,6.597,6.597,6.636,6.636,6.636,6.636,6.676,6.716,6.799,6.883,6.926,6.926,6.926,6.926,6.883,6.841,6.757,6.676,6.557,6.481,6.406,6.369,6.297,6.226,6.191,6.157,6.157,6.123,6.089,6.089,6.056,6.056,6.056,6.056,6.023,6.023,6.023,6.023,5.99,5.99,5.958,5.958,5.958,5.926,5.926,5.926,5.926,5.958,5.958,5.958,5.99,5.99,5.99,5.99,5.99,5.99,5.99,5.99,6.023,6.023,6.023,6.023,6.023,6.023,6.023,6.023,6.056,6.056,6.056,6.056,6.089,6.089,6.123,6.123,6.123,6.157,6.157,6.191,6.191,6.226,6.226,6.261,6.297,6.333,6.333,6.369,6.406,6.443,6.481,6.519,6.557,6.597,6.597,6.636,6.676,6.676,6.676,6.676,6.676,6.676,6.676,6.676,6.676,6.676,6.676,6.676,6.676,6.676,6.716,6.716,6.716,6.716,6.716,6.757,6.757,6.757,6.757,6.757,6.716,6.716,6.716,6.716,6.676,6.676,6.636,6.597,6.597,6.557,6.519,6.519,6.481,6.443,6.443,6.443,6.443,6.406,6.406,6.369,6.369,6.369,6.406,6.406,6.369,6.369,6.406,6.406,6.406,6.406,6.406,6.406,6.406,6.406,6.406,6.406,6.406,6.406,6.406,6.406,6.443,6.443,6.443,6.481,6.519,6.519,6.519,6.557,6.597,6.636,6.636,6.676,6.676,6.716,6.716,6.716,6.676,6.676,6.676,6.636,6.636,6.636,6.597,6.597,6.597,6.557,6.557,6.557,6.519,6.519,6.481,6.443,6.369,6.333,6.297,6.226,6.191,6.157,6.089,6.056,5.99,5.958,5.926,5.895,5.864,5.802,5.772,5.772,5.742,5.712,5.712,5.683,5.654,5.625,5.597,5.569,5.513,5.486,5.459,5.432,5.38,5.354,5.328,5.277,5.252,5.227,5.179,5.154,5.131,5.107,5.084,5.037,5.015,4.992,4.947,4.925,4.904,4.882,4.861,4.818,4.797,4.777,4.756,4.736,4.696,4.676,4.656,4.637,4.618,4.598,4.579,4.561,4.523,4.505,4.487,4.451,4.433,4.415,4.398,4.38,4.346,4.329,4.312,4.295,4.262,4.246,4.214,4.182,4.166,4.135,4.12,4.089,4.074,4.045,4.03,4.001,3.986,3.958,3.93,3.916,3.888,3.861,3.848,3.821,3.795,3.782,3.769,3.757,3.744,3.731,3.719,3.706,3.694,3.682,3.67,3.657,3.633,3.622,3.61,3.598,3.575,3.563,3.552,3.529,3.518,3.507,3.496,3.474,3.452,3.442,3.431,3.41,3.399,3.379,3.368,3.348,3.338,3.328,3.308,3.298,3.288,3.279,3.269,3.25,3.24,3.231,3.222,3.203,3.194,3.185,3.175,3.166,3.157,3.148,3.131,3.122,3.113,3.096,3.087,3.07,3.061,3.045,3.028,3.02,3.003,2.995,2.987
0,0,0,0,0,0,0,0,0,4.469,4.451,4.451,4.433,4.433,4.415,4.398,4.398,4.398,4.398,4.415,4.415,4.415,4.415,4.415,4.415,4.415,4.398,4.398,4.398,4.398,4.398,4.398,4.38,4.38,4.38,4.363,4.363,4.363,4.363,4.363,4.363,4.363,4.363,4.363,4.363,4.363,4.346,4.346,4.363,4.363,4.363,4.363,4.38,4.38,4.38,4.38,4.38,4.38,4.38,4.38,4.363,4.363,4.363,4.346,4.329,4.329,4.312,4.312,4.295,4.295,4.295,4.295,4.312,4.312,4.312,4.329,4.329,4.329,4.346,4.363,4.363,4.363,4.38,4.38,4.398,4.398,4.415,4.415,4.433,4.451,4.469,4.469,4.487,4.505,4.542,4.561,4.598,4.637,4.676,4.756,4.839,4.925,4.992,5.084,5.179,5.277,5.38,5.432,5.513,5.541,5.569,5.625,5.683,5.712,5.742,5.772,5.802,5.833,5.833,5.833,5.833,5.833,5.833,5.833,5.833,5.833,5.864,5.895,5.958,6.023,6.089,6.157,6.226,6.261,6.297,6.297,6.297,6.261,6.261,6.261,6.297,6.297,6.333,6.333,6.333,6.369,6.406,6.443,6.481,6.481,6.481,6.519,6.557,6.597,6.597,6.676,6.676,6.676,6.676,6.676,6.676,6.636,6.636,6.636,6.597,6.597,6.636,6.636,6.636,6.636,6.636,6.676,6.676,6.636,6.636,6.636,6.597,6.636,6.636,6.636,6.636,6.676,6.716,6.757,6.841,6.926,6.97,6.97,6.97,6.97,6.97,6.883,6.799,6.716,6.597,6.519,6.443,6.406,6.333,6.261,6.261,6.226,6.191,6.191,6.157,6.157,6.123,6.123,6.123,6.089,6.089,6.089,6.089,6.056,6.023,6.023,5.99,5.99,5.99,5.958,5.958,5.958,5.958,5.99,5.99,5.99,5.99,6.023,6.023,6.023,6.023,6.023,6.023,6.023,6.023,6.056,6.056,6.056,6.056,6.056,6.056,6.056,6.056,6.089,6.089,6.089,6.123,6.123,6.157,6.157,6.191,6.191,6.226,6.226,6.226,6.261,6.297,6.297,6.333,6.369,6.369,6.406,6.443,6.481,6.481,6.519,6.557,6.557,6.597,6.636,6.636,6.636,6.636,6.676,6.676,6.676,6.676,6.676,6.676,6.676,6.676,6.676,6.676,6.676,6.716,6.716,6.716,6.716,6.716,6.716,6.757,6.757,6.757,6.716,6.716,6.716,6.716,6.716,6.676,6.636,6.636,6.597,6.557,6.557,6.519,6.481,6.481,6.443,6.443,6.443,6.443,6.406,6.406,6.406,6.406,6.406,6.406,6.406,6.406,6.406,6.406,6.406,6.443,6.443,6.443,6.443,6.443,6.406,6.406,6.406,6.406,6.406,6.406,6.406,6.406,6.443,6.443,6.481,6.519,6.519,6.557,6.597,6.636,6.676,6.676,6.716,6.716,6.716,6.757,6.757,6.757,6.716,6.676,6.676,6.676,6.636,6.636,6.597,6.597,6.597,6.557,6.557,6.557,6.519,6.519,6.481,6.406,6.369,6.297,6.226,6.191,6.123,6.089,6.023,5.958,5.926,5.895,5.864,5.833,5.802,5.772,5.742,5.742,5.712,5.712,5.683,5.654,5.625,5.597,5.569,5.541,5.486,5.459,5.432,5.406,5.354,5.328,5.302,5.252,5.227,5.203,5.154,5.131,5.107,5.084,5.06,5.015,4.992,4.947,4.925,4.904,4.882,4.861,4.818,4.797,4.777,4.756,4.736,4.716,4.676,4.656,4.637,4.618,4.618,4.579,4.561,4.542,4.523,4.487,4.469,4.451,4.433,4.398,4.38,4.363,4.346,4.312,4.295,4.262,4.246,4.214,4.182,4.166,4.135,4.12,4.089,4.074,4.045,4.015,4.001,3.986,3.958,3.93,3.916,3.888,3.875,3.848,3.821,3.795,3.782,3.769,3.757,3.744,3.731,3.719,3.706,3.694,3.682,3.67,3.657,3.645,3.633,3.61,3.598,3.586,3.563,3.552,3.529,3.518,3.507,3.485,3.474,3.452,3.442,3.431,3.41,3.399,3.379,3.368,3.348,3.338,3.328,3.318,3.298,3.288,3.279,3.269,3.259,3.24,3.231,3.222,3.212,3.194,3.185,3.185,3.166,3.157,3.148,3.139,3.122,3.113,3.104,3.087,3.07,3.061,3.045,3.028,3.02,3.011,2.995,2.987
