0,0,0,0,0,0,0,0,1.718,1.718,1.718,1.718,1.718,1.718,1.715,1.715,1.713,1.713,1.71,1.708,1.708,1.705,1.705,1.702,1.702,1.7,1.697,1.695,1.692,1.689,1.687,1.679,1.674,1.669,1.661,1.654,1.647,1.639,1.632,1.625,1.618,1.613,1.606,1.601,1.599,1.595,1.59,1.588,1.585,1.581,1.579,1.576,1.572,1.57,1.57,1.565,1.563,1.561,1.561,1.561,1.561,1.561,1.561,1.561,1.561,1.561,1.561,1.559,1.556,1.554,1.554,1.554,1.554,1.554,1.554,1.554,1.554,1.554,1.554,1.556,1.556,1.559,1.556,1.556,1.559,1.559,1.556,1.554,1.552,1.55,1.55,1.548,1.546,1.546,1.543,1.543,1.541,1.541,1.541,1.541,1.541,1.541,1.541,1.541,1.541,1.539,1.539,1.539,1.539,1.537,1.539,1.539,1.537,1.537,1.537,1.539,1.541,1.541,1.543,1.543,1.546,1.546,1.548,1.548,1.548,1.548,1.548,1.548,1.546,1.546,1.546,1.543,1.543,1.546,1.548,1.548,1.55,1.552,1.554,1.559,1.561,1.563,1.565,1.567,1.567,1.567,1.565,1.565,1.563,1.563,1.561,1.561,1.559,1.559,1.561,1.563,1.565,1.567,1.567,1.57,1.57,1.572,1.572,1.574,1.576,1.576,1.579,1.581,1.581,1.581,1.579,1.579,1.579,1.579,1.579,1.579,1.579,1.581,1.583,1.588,1.59,1.595,1.599,1.604,1.608,1.611,1.615,1.618,1.62,1.623,1.623,1.625,1.625,1.625,1.625,1.625,1.627,1.63,1.63,1.63,1.627,1.625,1.625,1.623,1.623,1.62,1.618,1.615,1.613,1.611,1.611,1.608,1.608,1.608,1.608,1.606,1.606,1.608,1.611,1.611,1.613,1.613,1.613,1.613,1.613,1.615,1.615,1.615,1.613,1.615,1.613,1.615,1.615,1.615,1.613,1.613,1.611,1.611,1.608,1.606,1.606,1.606,1.606,1.606,1.608,1.611,1.618,1.623,1.63,1.632,1.637,1.642,1.642,1.644,1.649,1.652,1.654,1.654,1.654,1.654,1.657,1.657,1.657,1.657,1.657,1.654,1.652,1.652,1.652,1.654,1.654,1.657,1.657,1.657,1.657,1.659,1.659,1.659,1.659,1.659,1.657,1.657,1.654,1.649,1.649,1.647,1.642,1.637,1.635,1.632,1.627,1.625,1.623,1.62,1.618,1.615,1.613,1.611,1.606,1.604,1.599,1.597,1.595,1.592,1.59,1.59,1.59,1.592,1.592,1.595,1.597,1.601,1.606,1.611,1.613,1.618,1.62,1.625,1.63,1.632,1.637,1.639,1.639,1.642,1.647,1.649,1.654,1.657,1.659,1.661,1.664,1.669,1.672,1.674,1.674,1.677,1.679,1.682,1.684,1.687,1.689,1.692,1.695,1.7,1.702,1.708,1.715,1.721,1.726,1.734,1.74,1.748,1.754,1.756,1.765,1.77,1.773,1.779,1.785,1.79,1.796,1.802,1.808,1.817,1.82,1.826,1.829,1.835,1.844,1.85,1.853,1.859,1.866,1.872,1.882,1.891,1.901,1.911,1.924,1.937,1.951,1.965,1.975,1.99,2,2.015,2.03,2.045,2.052,2.068,2.075,2.083,2.087,2.091,2.095,2.103,2.107,2.111,2.115,2.119,2.127,2.131,2.135,2.144,2.152,2.16,2.164,2.177,2.186,2.199,2.208,2.221,2.234,2.243,2.252,2.257,2.266,2.266,2.266,2.271,2.271,2.271,2.271,2.271,2.271,2.276,2.276,2.28,2.285,2.285,2.29,2.29,2.29,2.294,2.294,2.294,2.294,2.299,2.304,2.309,2.309,2.314,2.314,2.318,2.323,2.323,2.328,2.333,2.338,2.343,2.348,2.353,2.353,2.353,2.353,2.353,2.348,2.348,2.343,2.343,2.343,2.343,2.343,2.343,2.343,2.343,2.343,2.343,2.343,2.338,2.338,2.338,2.338,2.338,2.333,2.328,2.328,2.323,2.323,2.314,2.309,2.304,2.299,2.294,2.285,2.28,2.276,2.271,2.266,2.266,2.262,2.257,2.252,2.252,2.248,2.243,2.239,2.239,2.234,2.23,2.23,2.225,2.221,2.216,2.216,2.212,2.208,2.208,2.208,2.208,2.208,2.208,2.203,2.203,2.203,2.203,2.203,2.203
0,0,0,1.705,1.705,1.71,1.71,1.713,1.715,1.715,1.718,1.715,1.715,1.718,1.715,1.713,1.713,1.713,1.713,1.71,1.708,1.708,1.705,1.702,1.702,1.7,1.7,1.697,1.695,1.692,1.687,1.682,1.677,1.672,1.664,1.657,1.649,1.642,1.632,1.625,1.62,1.613,1.608,1.604,1.599,1.592,1.59,1.588,1.585,1.581,1.579,1.576,1.574,1.572,1.57,1.567,1.565,1.563,1.563,1.561,1.561,1.561,1.561,1.561,1.561,1.561,1.559,1.559,1.556,1.554,1.556,1.556,1.556,1.556,1.556,1.556,1.556,1.556,1.556,1.559,1.559,1.561,1.561,1.561,1.561,1.561,1.561,1.559,1.556,1.554,1.554,1.552,1.55,1.55,1.548,1.548,1.546,1.546,1.546,1.546,1.546,1.543,1.543,1.543,1.543,1.543,1.541,1.541,1.541,1.541,1.541,1.539,1.539,1.539,1.539,1.541,1.541,1.543,1.546,1.548,1.55,1.55,1.552,1.552,1.552,1.55,1.552,1.55,1.55,1.548,1.548,1.548,1.548,1.548,1.55,1.552,1.554,1.559,1.561,1.563,1.565,1.567,1.57,1.572,1.572,1.572,1.57,1.57,1.567,1.567,1.565,1.565,1.563,1.563,1.565,1.567,1.57,1.572,1.574,1.574,1.574,1.576,1.579,1.579,1.581,1.581,1.583,1.583,1.585,1.585,1.585,1.585,1.583,1.583,1.585,1.585,1.585,1.588,1.59,1.592,1.597,1.599,1.604,1.608,1.613,1.615,1.618,1.62,1.623,1.625,1.627,1.63,1.63,1.632,1.632,1.632,1.635,1.637,1.637,1.639,1.637,1.635,1.635,1.635,1.632,1.627,1.625,1.623,1.62,1.618,1.615,1.615,1.615,1.613,1.613,1.613,1.613,1.613,1.615,1.618,1.618,1.62,1.62,1.62,1.623,1.623,1.623,1.623,1.623,1.623,1.62,1.623,1.623,1.62,1.618,1.618,1.615,1.613,1.611,1.608,1.608,1.608,1.608,1.611,1.613,1.615,1.62,1.627,1.635,1.639,1.642,1.647,1.649,1.652,1.657,1.659,1.661,1.661,1.661,1.661,1.664,1.664,1.664,1.664,1.661,1.661,1.661,1.659,1.661,1.661,1.661,1.661,1.664,1.664,1.664,1.664,1.664,1.664,1.664,1.664,1.664,1.661,1.659,1.657,1.654,1.652,1.647,1.644,1.639,1.635,1.632,1.627,1.625,1.623,1.62,1.618,1.615,1.613,1.608,1.606,1.604,1.601,1.599,1.597,1.595,1.595,1.597,1.597,1.597,1.599,1.601,1.606,1.608,1.613,1.618,1.62,1.623,1.627,1.632,1.635,1.637,1.639,1.642,1.644,1.649,1.652,1.654,1.659,1.661,1.664,1.666,1.669,1.674,1.674,1.677,1.679,1.682,1.684,1.687,1.689,1.692,1.695,1.697,1.702,1.708,1.713,1.718,1.726,1.732,1.737,1.745,1.751,1.756,1.762,1.767,1.773,1.779,1.787,1.793,1.799,1.805,1.814,1.82,1.826,1.829,1.835,1.841,1.847,1.856,1.863,1.866,1.872,1.882,1.894,1.907,1.924,1.937,1.951,1.968,1.982,2,2.015,2.026,2.041,2.052,2.068,2.075,2.091,2.099,2.107,2.115,2.119,2.127,2.127,2.131,2.135,2.139,2.144,2.148,2.152,2.16,2.164,2.169,2.177,2.186,2.194,2.203,2.212,2.225,2.234,2.248,2.257,2.262,2.271,2.28,2.285,2.29,2.29,2.29,2.29,2.29,2.29,2.29,2.285,2.29,2.29,2.29,2.294,2.299,2.299,2.299,2.299,2.299,2.299,2.299,2.299,2.304,2.304,2.309,2.309,2.314,2.318,2.318,2.318,2.323,2.328,2.328,2.333,2.338,2.343,2.348,2.348,2.353,2.353,2.358,2.353,2.353,2.348,2.348,2.348,2.348,2.348,2.348,2.343,2.343,2.348,2.348,2.343,2.343,2.338,2.338,2.338,2.338,2.333,2.333,2.328,2.328,2.323,2.318,2.314,2.309,2.304,2.299,2.294,2.285,2.28,2.276,2.276,2.271,2.266,2.262,2.262,2.262,2.257,2.252,2.248,2.243,2.239,2.239,2.234,2.23,2.23,2.225,2.221,2.216,2.216,2.212,2.212,2.212,2.212,2.212,2.208,2.208,2.208,2.208,2.208,2.208,2.208
1.7,1.702,1.702,1.702,1.705,1.708,1.71,1.71,1.713,1.713,1.715,1.715,1.718,1.718,1.715,1.715,1.715,1.713,1.713,1.71,1.71,1.708,1.708,1.705,1.705,1.702,1.7,1.697,1.695,1.692,1.689,1.684,1.679,1.672,1.666,1.659,1.652,1.644,1.637,1.63,1.623,1.618,1.611,1.606,1.601,1.595,1.592,1.59,1.588,1.583,1.581,1.579,1.576,1.574,1.572,1.57,1.567,1.565,1.563,1.563,1.563,1.561,1.561,1.561,1.561,1.561,1.559,1.559,1.556,1.556,1.556,1.556,1.556,1.556,1.559,1.559,1.559,1.559,1.559,1.561,1.563,1.563,1.563,1.563,1.565,1.565,1.563,1.563,1.561,1.559,1.559,1.556,1.554,1.554,1.552,1.552,1.552,1.55,1.55,1.55,1.55,1.548,1.548,1.548,1.548,1.546,1.546,1.543,1.543,1.543,1.543,1.541,1.541,1.541,1.541,1.543,1.546,1.546,1.548,1.55,1.552,1.554,1.554,1.556,1.554,1.554,1.554,1.554,1.552,1.552,1.552,1.55,1.55,1.552,1.554,1.556,1.559,1.561,1.565,1.567,1.57,1.572,1.574,1.574,1.576,1.576,1.574,1.572,1.572,1.572,1.57,1.57,1.57,1.567,1.57,1.572,1.574,1.576,1.576,1.579,1.579,1.581,1.583,1.583,1.585,1.585,1.588,1.588,1.59,1.59,1.59,1.59,1.59,1.59,1.59,1.592,1.595,1.597,1.599,1.601,1.604,1.608,1.611,1.613,1.615,1.62,1.623,1.625,1.625,1.63,1.63,1.635,1.637,1.637,1.639,1.639,1.642,1.644,1.647,1.647,1.647,1.644,1.644,1.642,1.642,1.637,1.635,1.63,1.627,1.623,1.623,1.62,1.62,1.62,1.618,1.618,1.62,1.62,1.623,1.625,1.625,1.627,1.627,1.627,1.63,1.632,1.632,1.632,1.63,1.63,1.63,1.63,1.63,1.627,1.623,1.623,1.62,1.615,1.613,1.611,1.611,1.611,1.611,1.613,1.613,1.618,1.625,1.632,1.639,1.644,1.649,1.654,1.657,1.661,1.664,1.666,1.666,1.666,1.669,1.669,1.672,1.672,1.672,1.672,1.669,1.669,1.669,1.669,1.669,1.669,1.669,1.669,1.672,1.672,1.672,1.672,1.672,1.672,1.669,1.669,1.669,1.666,1.666,1.661,1.659,1.657,1.654,1.649,1.644,1.639,1.637,1.632,1.63,1.625,1.623,1.62,1.618,1.615,1.611,1.608,1.606,1.604,1.601,1.599,1.599,1.599,1.599,1.601,1.601,1.601,1.606,1.611,1.613,1.615,1.62,1.623,1.625,1.63,1.635,1.637,1.639,1.644,1.647,1.649,1.652,1.657,1.657,1.659,1.664,1.666,1.669,1.672,1.677,1.677,1.679,1.684,1.684,1.687,1.689,1.692,1.695,1.697,1.7,1.705,1.71,1.715,1.724,1.729,1.737,1.742,1.748,1.754,1.759,1.767,1.773,1.779,1.787,1.793,1.802,1.808,1.817,1.826,1.832,1.838,1.844,1.85,1.856,1.859,1.869,1.875,1.882,1.891,1.907,1.921,1.937,1.958,1.979,1.993,2.011,2.03,2.048,2.064,2.071,2.087,2.095,2.107,2.119,2.127,2.139,2.148,2.148,2.156,2.156,2.164,2.169,2.169,2.173,2.177,2.182,2.186,2.19,2.199,2.203,2.212,2.221,2.23,2.239,2.248,2.262,2.271,2.276,2.285,2.29,2.299,2.304,2.304,2.304,2.304,2.309,2.309,2.304,2.304,2.299,2.299,2.299,2.299,2.304,2.304,2.304,2.304,2.309,2.309,2.309,2.309,2.304,2.309,2.309,2.309,2.309,2.314,2.314,2.318,2.318,2.323,2.323,2.323,2.328,2.333,2.338,2.343,2.348,2.353,2.358,2.358,2.358,2.358,2.353,2.353,2.348,2.348,2.348,2.348,2.348,2.348,2.348,2.348,2.348,2.348,2.343,2.343,2.338,2.338,2.338,2.333,2.333,2.328,2.328,2.323,2.318,2.314,2.309,2.304,2.299,2.294,2.29,2.285,2.28,2.276,2.276,2.271,2.266,2.266,2.262,2.257,2.257,2.252,2.248,2.243,2.239,2.239,2.234,2.23,2.225,2.225,2.221,2.216,2.216,2.212,2.212,2.212,2.212,2.212,2.212,2.212,2.212,2.212,2.208,2.208
1.697,1.7,1.702,1.7,1.702,1.708,1.708,1.71,1.71,1.713,1.715,1.713,1.715,1.715,1.715,1.715,1.715,1.713,1.713,1.71,1.71,1.71,1.71,1.708,1.705,1.702,1.7,1.697,1.697,1.695,1.689,1.684,1.679,1.674,1.669,1.661,1.654,1.647,1.639,1.632,1.627,1.62,1.615,1.611,1.604,1.599,1.595,1.592,1.588,1.585,1.583,1.579,1.576,1.574,1.574,1.572,1.57,1.567,1.567,1.565,1.563,1.563,1.563,1.563,1.561,1.561,1.561,1.561,1.556,1.556,1.559,1.559,1.559,1.559,1.561,1.561,1.561,1.561,1.563,1.565,1.565,1.565,1.565,1.565,1.567,1.567,1.567,1.567,1.565,1.565,1.563,1.561,1.561,1.556,1.556,1.554,1.554,1.554,1.554,1.554,1.554,1.552,1.552,1.552,1.55,1.548,1.548,1.546,1.546,1.546,1.546,1.543,1.543,1.543,1.546,1.546,1.548,1.55,1.552,1.552,1.554,1.556,1.556,1.559,1.559,1.559,1.559,1.556,1.556,1.556,1.554,1.554,1.554,1.556,1.559,1.559,1.561,1.563,1.567,1.57,1.572,1.574,1.576,1.576,1.579,1.579,1.576,1.574,1.574,1.574,1.574,1.574,1.574,1.574,1.574,1.576,1.579,1.581,1.583,1.583,1.585,1.585,1.588,1.588,1.59,1.592,1.592,1.595,1.595,1.595,1.597,1.597,1.597,1.597,1.599,1.599,1.601,1.604,1.606,1.608,1.611,1.615,1.618,1.62,1.623,1.625,1.627,1.627,1.63,1.632,1.635,1.637,1.642,1.644,1.644,1.647,1.649,1.652,1.654,1.654,1.654,1.654,1.652,1.652,1.649,1.644,1.642,1.637,1.635,1.632,1.627,1.627,1.627,1.627,1.627,1.625,1.627,1.627,1.63,1.632,1.632,1.632,1.632,1.635,1.637,1.637,1.639,1.639,1.637,1.637,1.637,1.637,1.635,1.635,1.63,1.627,1.625,1.62,1.618,1.613,1.613,1.611,1.611,1.613,1.615,1.62,1.627,1.635,1.642,1.649,1.654,1.659,1.664,1.669,1.672,1.674,1.674,1.674,1.677,1.677,1.677,1.679,1.679,1.679,1.677,1.674,1.674,1.674,1.677,1.677,1.677,1.677,1.677,1.677,1.677,1.677,1.677,1.674,1.674,1.674,1.674,1.672,1.669,1.666,1.664,1.661,1.657,1.654,1.649,1.644,1.639,1.637,1.632,1.627,1.625,1.623,1.62,1.615,1.613,1.611,1.608,1.606,1.606,1.604,1.604,1.604,1.604,1.606,1.606,1.608,1.611,1.613,1.615,1.62,1.623,1.625,1.627,1.632,1.637,1.639,1.644,1.647,1.649,1.652,1.654,1.657,1.659,1.661,1.664,1.666,1.674,1.677,1.679,1.682,1.682,1.687,1.689,1.689,1.692,1.695,1.697,1.7,1.702,1.708,1.713,1.721,1.726,1.732,1.74,1.745,1.754,1.759,1.765,1.77,1.779,1.785,1.793,1.802,1.811,1.82,1.829,1.838,1.844,1.85,1.853,1.863,1.866,1.872,1.882,1.891,1.901,1.911,1.931,1.951,1.972,1.997,2.015,2.033,2.052,2.071,2.091,2.103,2.111,2.123,2.131,2.148,2.152,2.16,2.177,2.182,2.19,2.19,2.19,2.199,2.199,2.203,2.208,2.212,2.212,2.221,2.225,2.23,2.239,2.243,2.252,2.266,2.271,2.28,2.29,2.299,2.304,2.314,2.314,2.318,2.318,2.323,2.318,2.323,2.323,2.323,2.318,2.314,2.314,2.309,2.309,2.314,2.314,2.314,2.314,2.314,2.314,2.314,2.314,2.314,2.314,2.309,2.314,2.314,2.314,2.318,2.318,2.323,2.323,2.323,2.323,2.328,2.328,2.333,2.338,2.338,2.343,2.348,2.353,2.353,2.358,2.358,2.353,2.353,2.353,2.353,2.353,2.353,2.348,2.348,2.348,2.348,2.348,2.348,2.343,2.343,2.338,2.338,2.338,2.333,2.328,2.328,2.323,2.323,2.318,2.314,2.309,2.304,2.299,2.294,2.29,2.285,2.285,2.28,2.276,2.276,2.271,2.271,2.266,2.262,2.257,2.257,2.252,2.248,2.243,2.239,2.234,2.23,2.225,2.225,2.221,2.221,2.216,2.216,2.212,2.212,2.212,2.212,2.212,2.212,2.212,2.212,2.212,2.212
1.697,1.7,1.7,1.702,1.702,1.705,1.705,1.71,1.71,1.71,1.71,1.713,1.713,1.715,1.715,1.713,1.713,1.713,1.713,1.713,1.71,1.71,1.71,1.708,1.705,1.702,1.702,1.7,1.697,1.695,1.692,1.687,1.682,1.677,1.672,1.664,1.659,1.652,1.644,1.639,1.632,1.627,1.62,1.615,1.608,1.601,1.599,1.595,1.59,1.588,1.585,1.581,1.579,1.579,1.579,1.576,1.572,1.57,1.57,1.567,1.565,1.563,1.563,1.563,1.563,1.561,1.561,1.559,1.559,1.559,1.561,1.561,1.561,1.561,1.563,1.563,1.563,1.563,1.565,1.567,1.567,1.567,1.567,1.57,1.57,1.572,1.572,1.57,1.57,1.567,1.567,1.565,1.565,1.563,1.561,1.559,1.559,1.559,1.556,1.556,1.556,1.556,1.554,1.554,1.554,1.552,1.55,1.548,1.548,1.548,1.548,1.548,1.548,1.548,1.548,1.55,1.552,1.552,1.554,1.556,1.559,1.561,1.563,1.563,1.563,1.561,1.561,1.561,1.561,1.561,1.559,1.559,1.559,1.559,1.561,1.563,1.563,1.567,1.57,1.572,1.574,1.576,1.579,1.579,1.581,1.581,1.579,1.576,1.576,1.579,1.579,1.579,1.579,1.579,1.579,1.583,1.583,1.585,1.588,1.588,1.59,1.592,1.592,1.592,1.595,1.597,1.597,1.599,1.599,1.601,1.601,1.601,1.604,1.604,1.606,1.606,1.608,1.611,1.613,1.615,1.618,1.623,1.625,1.625,1.627,1.63,1.63,1.632,1.635,1.637,1.639,1.644,1.647,1.649,1.652,1.654,1.657,1.659,1.659,1.661,1.661,1.661,1.661,1.659,1.657,1.654,1.649,1.647,1.644,1.639,1.637,1.637,1.637,1.637,1.635,1.635,1.635,1.637,1.637,1.639,1.639,1.639,1.639,1.642,1.644,1.644,1.647,1.647,1.644,1.644,1.644,1.644,1.642,1.642,1.637,1.635,1.63,1.625,1.623,1.618,1.615,1.615,1.615,1.615,1.618,1.623,1.63,1.637,1.644,1.652,1.659,1.666,1.672,1.677,1.679,1.682,1.682,1.684,1.684,1.684,1.684,1.684,1.684,1.684,1.682,1.682,1.682,1.682,1.682,1.682,1.682,1.682,1.682,1.682,1.679,1.679,1.679,1.679,1.679,1.677,1.677,1.677,1.674,1.672,1.669,1.666,1.661,1.659,1.652,1.647,1.644,1.639,1.635,1.63,1.625,1.623,1.62,1.618,1.615,1.613,1.611,1.608,1.608,1.608,1.606,1.608,1.608,1.611,1.611,1.613,1.615,1.618,1.62,1.625,1.627,1.627,1.632,1.635,1.639,1.644,1.647,1.649,1.652,1.654,1.657,1.659,1.661,1.664,1.664,1.669,1.674,1.677,1.679,1.682,1.684,1.689,1.692,1.692,1.695,1.697,1.697,1.702,1.705,1.71,1.715,1.721,1.729,1.734,1.742,1.748,1.754,1.762,1.767,1.773,1.782,1.79,1.799,1.811,1.82,1.832,1.841,1.85,1.856,1.863,1.869,1.875,1.878,1.888,1.894,1.907,1.921,1.934,1.961,1.986,2.011,2.033,2.056,2.079,2.099,2.111,2.131,2.139,2.152,2.16,2.169,2.182,2.19,2.199,2.208,2.221,2.221,2.225,2.23,2.234,2.234,2.239,2.243,2.243,2.243,2.252,2.257,2.266,2.271,2.276,2.285,2.294,2.304,2.314,2.318,2.323,2.323,2.328,2.333,2.338,2.338,2.343,2.338,2.338,2.338,2.338,2.333,2.328,2.323,2.323,2.323,2.323,2.323,2.318,2.318,2.318,2.318,2.318,2.318,2.318,2.314,2.314,2.318,2.318,2.318,2.323,2.323,2.323,2.323,2.323,2.328,2.328,2.328,2.328,2.333,2.338,2.343,2.348,2.353,2.353,2.353,2.353,2.353,2.353,2.353,2.353,2.353,2.353,2.353,2.348,2.348,2.348,2.348,2.348,2.343,2.343,2.338,2.338,2.333,2.333,2.328,2.328,2.323,2.318,2.318,2.314,2.309,2.304,2.299,2.294,2.294,2.29,2.285,2.285,2.28,2.276,2.276,2.271,2.271,2.266,2.262,2.257,2.252,2.248,2.243,2.239,2.239,2.234,2.23,2.225,2.221,2.221,2.221,2.216,2.216,2.212,2.212,2.212,2.212,2.212,2.212,2.212,2.212,2.212
1.697,1.7,1.7,1.702,1.702,1.702,1.705,1.708,1.708,1.71,1.71,1.713,1.713,1.713,1.713,1.713,1.713,1.713,1.713,1.71,1.71,1.71,1.71,1.708,1.708,1.705,1.702,1.702,1.7,1.697,1.692,1.687,1.682,1.679,1.674,1.666,1.661,1.657,1.649,1.642,1.637,1.632,1.625,1.62,1.615,1.608,1.601,1.599,1.592,1.59,1.588,1.585,1.583,1.581,1.579,1.579,1.576,1.572,1.572,1.57,1.567,1.565,1.565,1.565,1.563,1.563,1.561,1.561,1.559,1.559,1.561,1.563,1.563,1.563,1.565,1.565,1.565,1.565,1.57,1.57,1.57,1.57,1.57,1.572,1.574,1.574,1.574,1.574,1.574,1.572,1.572,1.572,1.57,1.567,1.565,1.565,1.565,1.563,1.561,1.561,1.559,1.559,1.559,1.559,1.556,1.554,1.552,1.552,1.552,1.552,1.552,1.552,1.55,1.552,1.552,1.554,1.554,1.556,1.559,1.561,1.563,1.565,1.565,1.565,1.565,1.565,1.565,1.565,1.565,1.563,1.563,1.563,1.563,1.563,1.565,1.565,1.567,1.57,1.572,1.574,1.576,1.579,1.579,1.581,1.581,1.581,1.581,1.579,1.579,1.579,1.579,1.581,1.583,1.583,1.585,1.588,1.59,1.592,1.592,1.595,1.595,1.597,1.597,1.599,1.599,1.601,1.601,1.604,1.606,1.606,1.606,1.608,1.608,1.611,1.611,1.613,1.615,1.618,1.62,1.623,1.625,1.627,1.63,1.63,1.632,1.635,1.637,1.637,1.639,1.642,1.644,1.649,1.654,1.654,1.659,1.659,1.661,1.666,1.669,1.669,1.669,1.666,1.666,1.666,1.664,1.661,1.657,1.654,1.652,1.649,1.647,1.644,1.644,1.644,1.644,1.644,1.644,1.644,1.647,1.647,1.647,1.647,1.649,1.649,1.652,1.654,1.654,1.654,1.654,1.654,1.654,1.654,1.652,1.649,1.644,1.642,1.639,1.635,1.63,1.627,1.623,1.62,1.62,1.623,1.623,1.627,1.635,1.642,1.649,1.659,1.666,1.674,1.679,1.687,1.689,1.692,1.692,1.695,1.695,1.695,1.692,1.692,1.692,1.689,1.689,1.689,1.687,1.687,1.687,1.687,1.687,1.684,1.684,1.684,1.684,1.684,1.682,1.682,1.682,1.682,1.679,1.679,1.677,1.674,1.672,1.669,1.666,1.661,1.657,1.652,1.647,1.642,1.637,1.632,1.63,1.625,1.623,1.62,1.615,1.615,1.613,1.611,1.611,1.611,1.611,1.611,1.613,1.615,1.615,1.618,1.62,1.623,1.625,1.627,1.63,1.632,1.635,1.637,1.642,1.647,1.649,1.649,1.652,1.657,1.659,1.661,1.661,1.664,1.666,1.669,1.677,1.679,1.682,1.684,1.687,1.692,1.695,1.695,1.697,1.697,1.7,1.702,1.708,1.71,1.715,1.721,1.729,1.737,1.742,1.751,1.754,1.762,1.767,1.776,1.785,1.793,1.805,1.817,1.829,1.841,1.85,1.859,1.869,1.872,1.878,1.888,1.894,1.901,1.914,1.927,1.944,1.965,1.993,2.022,2.056,2.075,2.095,2.119,2.139,2.148,2.164,2.177,2.186,2.199,2.208,2.221,2.225,2.239,2.248,2.252,2.257,2.257,2.266,2.266,2.271,2.271,2.276,2.276,2.28,2.285,2.29,2.294,2.299,2.304,2.314,2.318,2.328,2.333,2.338,2.338,2.343,2.348,2.353,2.358,2.358,2.358,2.353,2.353,2.353,2.348,2.343,2.338,2.338,2.333,2.333,2.328,2.333,2.328,2.328,2.328,2.323,2.323,2.323,2.323,2.323,2.323,2.323,2.323,2.323,2.328,2.328,2.328,2.328,2.328,2.333,2.333,2.333,2.333,2.338,2.343,2.343,2.348,2.353,2.353,2.358,2.358,2.358,2.358,2.358,2.353,2.353,2.353,2.353,2.353,2.353,2.353,2.348,2.348,2.343,2.343,2.338,2.338,2.338,2.333,2.328,2.328,2.323,2.318,2.318,2.314,2.309,2.304,2.299,2.299,2.294,2.294,2.29,2.285,2.28,2.28,2.276,2.271,2.271,2.266,2.262,2.257,2.252,2.248,2.243,2.243,2.239,2.234,2.23,2.225,2.225,2.221,2.221,2.216,2.216,2.216,2.216,2.212,2.212,2.212,2.212,2.212,2.212,2.212
1.697,1.7,1.697,1.7,1.7,1.702,1.702,1.702,1.705,1.708,1.708,1.71,1.71,1.71,1.713,1.713,1.713,1.71,1.71,1.71,1.71,1.71,1.71,1.71,1.708,1.705,1.705,1.702,1.702,1.7,1.695,1.689,1.684,1.682,1.677,1.672,1.666,1.659,1.654,1.647,1.642,1.637,1.63,1.625,1.618,1.611,1.608,1.601,1.597,1.595,1.59,1.588,1.585,1.583,1.583,1.581,1.579,1.576,1.572,1.572,1.57,1.567,1.565,1.565,1.565,1.563,1.563,1.561,1.561,1.561,1.563,1.563,1.563,1.563,1.565,1.567,1.567,1.57,1.572,1.574,1.574,1.574,1.574,1.574,1.576,1.576,1.576,1.579,1.579,1.579,1.579,1.576,1.574,1.572,1.572,1.57,1.57,1.567,1.565,1.563,1.563,1.561,1.561,1.559,1.559,1.556,1.556,1.554,1.554,1.554,1.556,1.554,1.554,1.556,1.556,1.559,1.561,1.561,1.563,1.563,1.565,1.567,1.567,1.57,1.57,1.567,1.567,1.567,1.567,1.565,1.565,1.565,1.567,1.567,1.567,1.57,1.57,1.572,1.574,1.576,1.579,1.579,1.581,1.581,1.583,1.583,1.583,1.581,1.581,1.583,1.583,1.583,1.585,1.585,1.59,1.59,1.592,1.597,1.597,1.597,1.599,1.599,1.599,1.601,1.604,1.606,1.606,1.608,1.611,1.613,1.613,1.615,1.615,1.618,1.62,1.623,1.623,1.625,1.63,1.632,1.635,1.635,1.637,1.637,1.639,1.639,1.642,1.642,1.644,1.647,1.649,1.654,1.659,1.661,1.664,1.666,1.669,1.672,1.674,1.674,1.677,1.677,1.674,1.674,1.672,1.672,1.666,1.664,1.661,1.659,1.654,1.654,1.657,1.657,1.652,1.652,1.654,1.654,1.657,1.657,1.657,1.657,1.657,1.659,1.661,1.661,1.664,1.664,1.664,1.661,1.661,1.661,1.659,1.659,1.654,1.652,1.649,1.647,1.642,1.637,1.635,1.632,1.63,1.632,1.632,1.637,1.642,1.649,1.659,1.666,1.677,1.684,1.689,1.695,1.7,1.702,1.702,1.705,1.705,1.702,1.702,1.7,1.7,1.697,1.695,1.695,1.692,1.692,1.692,1.692,1.689,1.689,1.689,1.687,1.687,1.687,1.684,1.684,1.684,1.684,1.682,1.679,1.677,1.677,1.674,1.674,1.669,1.664,1.659,1.654,1.649,1.644,1.639,1.635,1.632,1.627,1.625,1.623,1.618,1.618,1.615,1.613,1.613,1.613,1.613,1.615,1.618,1.618,1.62,1.623,1.625,1.627,1.627,1.632,1.632,1.635,1.637,1.639,1.644,1.647,1.649,1.652,1.654,1.657,1.659,1.661,1.664,1.664,1.669,1.669,1.677,1.682,1.684,1.687,1.689,1.695,1.697,1.697,1.697,1.7,1.7,1.705,1.708,1.713,1.718,1.724,1.732,1.737,1.745,1.751,1.756,1.762,1.767,1.779,1.787,1.796,1.808,1.823,1.835,1.85,1.859,1.869,1.878,1.885,1.898,1.907,1.914,1.931,1.948,1.972,1.997,2.022,2.056,2.091,2.115,2.144,2.16,2.173,2.186,2.194,2.203,2.216,2.225,2.239,2.243,2.252,2.262,2.271,2.28,2.285,2.29,2.294,2.299,2.304,2.304,2.304,2.309,2.309,2.309,2.314,2.318,2.323,2.328,2.333,2.338,2.343,2.348,2.353,2.358,2.358,2.363,2.363,2.368,2.368,2.368,2.368,2.368,2.368,2.363,2.358,2.353,2.348,2.348,2.343,2.343,2.343,2.338,2.338,2.333,2.333,2.333,2.333,2.333,2.328,2.328,2.328,2.328,2.333,2.333,2.333,2.338,2.338,2.338,2.338,2.333,2.333,2.333,2.338,2.338,2.343,2.348,2.348,2.353,2.358,2.358,2.358,2.358,2.358,2.358,2.358,2.358,2.353,2.353,2.353,2.353,2.353,2.348,2.348,2.343,2.343,2.338,2.338,2.338,2.333,2.328,2.328,2.323,2.318,2.318,2.314,2.309,2.304,2.304,2.299,2.299,2.294,2.29,2.285,2.285,2.28,2.276,2.276,2.271,2.266,2.262,2.257,2.252,2.248,2.243,2.239,2.234,2.23,2.23,2.225,2.221,2.221,2.221,2.216,2.216,2.216,2.212,2.212,2.212,2.212,2.208,2.208,2.208,2.208
1.697,1.697,1.7,1.7,1.7,1.702,1.702,1.705,1.708,1.708,1.71,1.71,1.713,1.713,1.713,1.713,1.713,1.713,1.713,1.71,1.71,1.71,1.71,1.71,1.71,1.708,1.705,1.702,1.702,1.7,1.697,1.692,1.689,1.684,1.682,1.677,1.672,1.666,1.659,1.654,1.647,1.642,1.635,1.63,1.623,1.615,1.611,1.606,1.601,1.597,1.595,1.592,1.588,1.588,1.588,1.585,1.583,1.579,1.576,1.574,1.572,1.57,1.567,1.565,1.565,1.563,1.563,1.561,1.561,1.561,1.563,1.563,1.565,1.565,1.565,1.567,1.57,1.572,1.574,1.576,1.576,1.576,1.576,1.576,1.579,1.581,1.581,1.581,1.581,1.581,1.581,1.581,1.581,1.576,1.574,1.574,1.574,1.572,1.57,1.567,1.565,1.565,1.563,1.563,1.561,1.559,1.556,1.556,1.556,1.556,1.559,1.559,1.559,1.561,1.561,1.563,1.565,1.565,1.567,1.567,1.57,1.572,1.572,1.572,1.572,1.572,1.57,1.572,1.572,1.57,1.567,1.567,1.57,1.572,1.572,1.574,1.574,1.574,1.576,1.579,1.581,1.581,1.583,1.583,1.583,1.583,1.583,1.583,1.583,1.583,1.585,1.588,1.59,1.592,1.592,1.595,1.597,1.599,1.599,1.599,1.601,1.604,1.604,1.604,1.606,1.611,1.611,1.613,1.615,1.618,1.618,1.62,1.623,1.625,1.627,1.63,1.632,1.635,1.637,1.639,1.642,1.642,1.642,1.644,1.647,1.647,1.649,1.649,1.652,1.654,1.657,1.661,1.666,1.669,1.672,1.674,1.677,1.679,1.682,1.682,1.682,1.682,1.679,1.679,1.679,1.677,1.674,1.672,1.669,1.666,1.664,1.664,1.664,1.664,1.664,1.661,1.661,1.664,1.664,1.664,1.664,1.664,1.664,1.666,1.669,1.672,1.672,1.672,1.672,1.672,1.669,1.669,1.669,1.666,1.661,1.659,1.657,1.654,1.649,1.647,1.642,1.642,1.639,1.639,1.642,1.644,1.652,1.659,1.666,1.674,1.684,1.692,1.697,1.705,1.708,1.71,1.713,1.713,1.713,1.713,1.71,1.71,1.708,1.705,1.705,1.702,1.702,1.7,1.7,1.697,1.697,1.695,1.695,1.692,1.689,1.689,1.687,1.687,1.687,1.684,1.684,1.682,1.682,1.679,1.677,1.677,1.672,1.666,1.661,1.657,1.652,1.647,1.642,1.637,1.635,1.63,1.627,1.623,1.623,1.62,1.618,1.615,1.615,1.615,1.615,1.618,1.62,1.623,1.625,1.625,1.627,1.63,1.632,1.635,1.635,1.637,1.639,1.642,1.644,1.647,1.652,1.654,1.657,1.657,1.659,1.664,1.666,1.666,1.672,1.674,0,1.684,1.687,1.689,1.692,1.695,1.697,1.697,1.7,1.7,1.702,1.705,1.71,1.713,1.718,1.724,1.732,1.74,1.745,1.751,1.756,1.762,1.767,1.776,1.787,1.799,1.811,1.829,1.841,1.856,1.869,1.882,1.888,1.898,1.911,1.924,1.937,1.961,1.99,2.022,2.056,2.087,2.127,2.156,2.177,2.203,2.216,2.221,2.234,2.239,2.248,2.257,2.262,2.271,2.28,2.29,2.294,2.304,2.314,2.318,2.323,2.323,2.328,2.333,2.333,2.338,2.338,2.338,2.343,2.348,2.348,2.353,2.358,2.358,2.363,2.368,2.368,2.373,2.373,2.378,2.378,2.378,2.383,2.388,2.383,2.383,2.383,2.378,2.373,2.373,2.368,2.363,2.358,2.353,2.353,2.353,2.348,2.348,2.343,2.343,2.343,2.343,2.343,2.338,2.338,2.338,2.338,2.338,2.343,2.343,2.343,2.343,2.343,2.343,2.343,2.338,2.338,2.343,2.348,2.348,2.348,2.353,2.358,2.358,2.363,2.363,2.363,2.363,2.358,2.358,2.358,2.358,2.353,2.353,2.353,2.353,2.348,2.348,2.343,2.343,2.343,2.338,2.338,2.333,2.333,2.328,2.328,2.323,2.318,2.318,2.314,2.309,2.304,2.299,2.299,2.294,2.29,2.29,2.285,2.28,2.276,2.271,2.271,2.266,2.262,2.257,2.252,2.248,2.243,2.239,2.234,2.23,2.23,2.225,2.225,2.221,2.221,2.216,2.216,2.216,2.212,2.212,2.208,2.208,2.208,2.208,2.203,2.203
1.697,1.7,1.7,1.702,1.702,1.702,1.705,1.705,1.708,1.708,1.71,1.71,1.71,1.713,1.713,1.713,1.715,1.713,1.713,1.713,1.713,1.713,1.713,1.71,1.71,1.708,1.708,1.705,1.705,1.702,1.7,1.695,1.692,1.689,1.687,1.684,1.679,1.672,1.666,1.659,1.654,1.649,1.642,1.637,1.63,1.623,1.615,1.611,1.606,1.601,1.597,1.595,1.592,1.59,1.59,1.588,1.588,1.583,1.581,1.579,1.574,1.572,1.57,1.567,1.565,1.565,1.565,1.561,1.561,1.561,1.563,1.565,1.565,1.565,1.567,1.57,1.57,1.574,1.576,1.579,1.579,1.579,1.579,1.579,1.581,1.581,1.581,1.583,1.583,1.583,1.585,1.583,1.583,1.581,1.579,1.579,1.576,1.574,1.572,1.57,1.567,1.567,1.565,1.563,1.561,1.561,1.559,1.559,1.559,1.561,1.561,1.561,1.563,1.565,1.565,1.567,1.567,1.57,1.57,1.572,1.574,1.574,1.576,1.576,1.574,1.574,1.574,1.574,1.574,1.572,1.572,1.572,1.572,1.574,1.576,1.576,1.579,1.579,1.581,1.581,1.583,1.585,1.585,1.585,1.585,1.585,1.585,1.585,1.585,1.585,1.588,1.59,1.592,1.595,1.597,1.597,1.599,1.601,1.604,1.604,1.604,1.606,1.606,1.608,1.611,1.613,1.615,1.618,1.62,1.623,1.625,1.627,1.63,1.632,1.635,1.637,1.637,1.642,1.644,1.644,1.647,1.649,1.649,1.652,1.654,1.657,1.654,1.657,1.659,1.661,1.664,1.669,1.672,1.677,1.679,1.679,1.682,1.684,1.687,1.687,1.687,1.687,1.687,1.687,1.687,1.684,1.684,1.682,1.679,1.677,1.677,1.677,1.677,1.674,1.674,1.674,1.672,1.672,1.672,1.672,1.672,1.672,1.672,1.674,1.677,1.679,1.679,1.679,1.679,1.679,1.679,1.677,1.677,1.674,1.672,1.669,1.666,1.664,1.661,1.657,1.654,1.652,1.652,1.652,1.652,1.654,1.661,1.666,1.674,1.682,1.692,1.697,1.705,1.713,1.715,1.718,1.721,1.721,1.721,1.721,1.721,1.718,1.715,1.715,1.713,1.71,1.708,1.708,1.705,1.705,1.702,1.7,1.697,1.697,1.695,1.692,1.689,1.689,1.689,1.687,1.687,1.682,1.682,1.682,1.679,1.677,1.672,1.666,1.661,1.657,1.654,1.649,1.644,1.639,1.635,1.63,1.627,1.625,1.623,1.62,1.62,1.618,1.618,1.618,1.618,1.62,1.62,1.625,1.627,1.627,1.63,1.632,1.635,1.635,1.637,1.639,1.639,1.642,1.644,1.649,1.652,1.652,1.657,1.661,1.661,1.664,1.666,1.669,0,0,0,0,0,1.692,1.695,0,0,1.7,1.7,1.7,1.702,1.705,1.71,1.715,1.721,1.726,1.734,1.74,1.745,1.751,1.759,1.762,1.77,1.779,1.79,1.802,1.814,1.829,1.847,1.866,1.875,1.891,1.904,1.924,1.944,1.968,1.993,2.026,2.068,2.107,2.144,2.177,2.203,2.23,2.243,2.262,2.266,2.276,2.28,2.285,2.285,2.294,2.299,2.309,2.318,2.328,2.333,2.343,2.348,2.353,2.358,2.358,2.363,2.368,2.368,2.373,2.373,2.373,2.373,2.378,2.378,2.383,2.383,2.383,2.388,2.388,2.394,2.394,2.394,2.394,2.399,2.399,2.399,2.404,2.404,2.399,2.399,2.399,2.394,2.388,2.383,2.378,2.373,2.368,2.368,2.363,2.363,2.358,2.358,2.353,2.353,2.353,2.348,2.348,2.348,2.348,2.348,2.348,2.348,2.348,2.348,2.348,2.348,2.348,2.348,2.348,2.343,2.348,2.353,2.353,2.353,2.358,2.358,2.363,2.363,2.368,2.363,2.363,2.363,2.358,2.358,2.358,2.358,2.358,2.353,2.353,2.353,2.348,2.348,2.343,2.343,2.343,2.338,2.338,2.333,2.333,2.328,2.328,2.323,2.318,2.318,2.314,2.304,2.304,2.299,2.294,2.29,2.285,2.285,2.28,2.276,2.271,2.266,2.262,2.257,2.252,2.248,2.243,2.239,2.239,2.234,2.23,2.23,2.225,2.221,2.221,2.216,2.216,2.216,2.212,2.212,2.208,2.208,2.203,2.203,2.203,2.199,2.199
1.7,1.702,1.702,1.702,1.702,1.705,1.705,1.708,1.708,1.71,1.71,1.71,1.713,1.713,1.713,1.715,1.715,1.715,1.715,1.715,1.713,1.713,1.713,1.713,1.71,1.71,1.708,1.705,1.705,1.705,1.702,1.7,1.697,1.695,1.692,1.689,1.687,1.682,1.674,1.666,1.661,1.654,1.647,1.642,1.635,1.627,1.62,1.615,1.611,1.606,1.604,1.599,1.597,1.595,1.592,1.592,1.59,1.585,1.583,1.581,1.576,1.574,1.574,1.572,1.567,1.565,1.565,1.563,1.563,1.563,1.563,1.563,1.565,1.565,1.567,1.572,1.572,1.576,1.579,1.581,1.581,1.581,1.581,1.583,1.583,1.585,1.585,1.585,1.585,1.585,1.588,1.588,1.585,1.583,1.583,1.581,1.579,1.579,1.574,1.572,1.57,1.57,1.567,1.565,1.565,1.563,1.563,1.561,1.563,1.563,1.565,1.565,1.565,1.567,1.57,1.57,1.572,1.574,1.574,1.574,1.576,1.579,1.579,1.579,1.579,1.576,1.576,1.576,1.576,1.574,1.574,1.574,1.576,1.576,1.581,1.581,1.581,1.583,1.583,1.585,1.585,1.588,1.588,1.588,1.59,1.59,1.59,1.59,1.588,1.59,1.592,1.595,1.597,1.599,1.599,1.601,1.604,1.606,1.606,1.606,1.606,1.608,1.611,1.613,1.615,1.62,1.62,1.623,1.625,1.627,1.63,1.632,1.635,1.637,1.639,1.642,1.644,1.647,1.649,1.652,1.654,1.654,1.657,1.657,1.659,1.661,1.661,1.664,1.664,1.669,1.672,1.677,1.679,1.684,1.684,1.687,1.689,1.692,1.692,1.692,1.692,1.692,1.692,1.692,1.689,1.692,1.692,1.689,1.689,1.687,1.687,1.687,1.684,1.684,1.682,1.682,1.679,1.682,1.679,1.679,1.679,1.679,1.679,1.682,1.684,1.687,1.687,1.687,1.687,1.687,1.687,1.687,1.684,1.684,1.682,1.679,1.679,1.677,1.674,1.672,1.669,1.666,1.664,1.664,1.664,1.666,1.672,1.677,1.684,1.689,1.7,1.708,1.713,1.721,1.724,1.729,1.729,1.732,1.732,1.732,1.729,1.726,1.726,1.724,1.721,1.718,1.718,1.715,1.713,1.713,1.71,1.708,1.705,1.702,1.697,1.697,1.695,1.692,1.692,1.687,1.687,1.684,1.684,1.684,1.682,1.677,1.674,1.669,1.664,1.659,1.657,1.649,1.644,1.639,1.637,1.632,1.627,1.625,1.625,1.623,1.623,1.62,1.62,1.62,1.62,1.623,1.623,1.627,1.627,1.627,1.63,1.63,1.632,1.635,1.637,1.637,1.639,1.642,1.647,1.649,1.652,1.654,1.659,1.661,1.664,1.666,1.669,0,0,0,0,3.835,3.821,3.821,0,0,0,0,0,1.702,0,0,0,0,0,0,0,0,0,1.754,1.756,1.762,1.77,1.779,1.79,1.802,1.817,1.835,1.85,1.869,1.885,1.898,1.914,1.934,1.961,2.004,2.071,2.123,2.173,2.208,0,2.266,2.285,2.299,2.309,2.318,2.323,2.323,2.328,2.323,2.328,2.333,2.338,2.348,2.353,2.363,2.373,2.383,2.388,2.394,2.404,2.404,2.404,2.409,2.409,2.409,2.409,2.409,2.414,2.42,2.42,2.42,2.425,2.425,2.425,2.425,2.425,2.425,2.42,2.42,2.42,2.425,2.425,2.43,2.425,2.42,2.42,2.414,2.414,2.404,2.404,2.394,2.388,2.388,2.383,2.378,2.378,2.373,2.368,2.368,2.368,2.363,2.363,2.358,2.358,2.358,2.358,2.358,2.358,2.358,2.358,2.353,2.353,2.353,2.353,2.353,2.353,2.353,2.358,2.358,2.358,2.363,2.363,2.363,2.368,2.368,2.368,2.363,2.363,2.363,2.363,2.363,2.358,2.358,2.358,2.353,2.353,2.348,2.348,2.348,2.343,2.343,2.343,2.338,2.338,2.333,2.333,2.328,2.328,2.323,2.318,2.314,2.309,2.304,2.299,2.294,2.29,2.285,2.28,2.276,2.276,2.271,2.266,2.262,2.257,2.252,2.248,2.243,2.239,2.239,2.234,2.23,2.23,2.225,2.221,2.221,2.216,2.216,2.216,2.212,2.212,2.208,2.208,2.203,2.203,2.199,2.199,2.194
1.702,1.702,1.702,1.702,1.705,1.705,1.708,1.708,1.708,1.71,1.71,1.71,1.713,1.715,1.715,1.715,1.715,1.718,1.718,1.718,1.715,1.715,1.715,1.715,1.713,1.713,1.71,1.708,1.708,1.708,1.705,1.702,1.7,1.697,1.695,1.695,1.689,1.687,1.679,1.674,1.666,1.661,1.654,1.647,1.639,1.632,1.625,1.62,1.615,1.611,1.608,1.604,1.601,1.599,1.597,1.595,1.592,1.59,1.588,1.583,1.581,1.576,1.576,1.574,1.572,1.567,1.567,1.567,1.565,1.565,1.565,1.567,1.567,1.567,1.57,1.572,1.574,1.579,1.581,1.583,1.585,1.585,1.588,1.588,1.588,1.588,1.588,1.588,1.59,1.59,1.592,1.592,1.588,1.588,1.585,1.583,1.583,1.581,1.579,1.576,1.572,1.572,1.572,1.57,1.567,1.567,1.565,1.565,1.565,1.567,1.567,1.567,1.567,1.57,1.572,1.574,1.576,1.579,1.579,1.579,1.581,1.581,1.583,1.581,1.581,1.579,1.579,1.579,1.579,1.579,1.579,1.579,1.579,1.581,1.583,1.585,1.585,1.585,1.588,1.59,1.59,1.592,1.592,1.595,1.595,1.597,1.595,1.595,1.595,1.597,1.599,1.599,1.601,1.604,1.604,1.608,1.608,1.611,1.611,1.611,1.611,1.613,1.615,1.618,1.62,1.623,1.627,1.63,1.632,1.635,1.637,1.639,1.642,1.642,1.644,1.647,1.652,1.654,1.654,1.657,1.659,1.659,1.661,1.664,1.666,1.669,1.669,1.672,1.674,1.677,1.679,1.684,1.687,1.689,1.692,1.695,1.695,1.697,1.697,1.697,1.697,1.697,1.697,1.695,1.697,1.697,1.697,1.697,1.695,1.697,1.695,1.695,1.695,1.695,1.689,1.689,1.689,1.689,1.687,1.687,1.687,1.687,1.689,1.689,1.692,1.695,1.695,1.695,1.695,1.692,1.695,1.695,1.695,1.692,1.692,1.692,1.689,1.689,1.687,1.684,1.684,1.682,1.679,1.677,1.677,1.679,1.682,1.687,1.692,1.7,1.708,1.715,1.721,1.729,1.732,1.737,1.737,1.74,1.74,1.737,1.737,1.734,1.732,1.732,1.729,1.726,1.724,1.721,1.718,1.715,1.713,1.71,1.708,1.705,1.702,1.697,1.695,1.695,1.692,1.689,1.687,1.687,1.684,1.682,1.682,1.679,1.674,1.669,1.666,1.661,1.659,1.652,1.647,1.644,1.639,1.635,1.632,1.627,1.625,1.623,1.623,1.623,1.623,1.623,1.623,1.623,1.625,1.627,1.627,1.627,1.63,1.632,1.635,1.635,1.637,1.637,1.637,1.642,1.644,1.649,1.652,1.654,1.659,1.661,1.666,0,0,0,0,3.835,3.835,3.821,3.808,3.795,3.795,3.795,3.782,0,0,0,0,0,0,0,0,0,0,0,0,0,1.754,1.762,1.77,1.776,1.79,1.802,1.82,1.838,1.853,1.875,1.888,1.904,1.937,1.972,2.033,2.152,2.182,0,2.266,2.299,2.323,2.343,2.348,2.363,2.368,2.373,2.368,2.368,2.368,2.363,2.363,2.363,2.368,2.378,2.383,2.394,2.404,2.409,2.42,2.43,2.436,2.441,2.446,2.446,2.446,2.452,2.452,2.452,2.452,2.457,2.457,2.457,2.457,2.463,2.457,2.457,2.457,2.457,2.452,2.452,2.452,2.446,2.446,2.452,2.446,2.441,2.441,2.436,2.43,2.425,2.42,2.414,2.409,2.404,2.404,2.399,2.394,2.394,2.388,2.383,2.383,2.378,2.378,2.373,2.368,2.368,2.368,2.368,2.363,2.363,2.363,2.363,2.363,2.358,2.358,2.358,2.358,2.363,2.363,2.363,2.368,2.368,2.368,2.368,2.373,2.373,2.368,2.368,2.368,2.363,2.363,2.363,2.363,2.358,2.358,2.353,2.353,2.353,2.348,2.348,2.348,2.348,2.343,2.343,2.343,2.338,2.333,2.333,2.328,2.328,2.323,2.318,2.314,2.304,2.304,2.294,2.29,2.285,2.28,2.276,2.271,2.266,2.262,2.257,2.252,2.252,2.248,2.243,2.239,2.239,2.234,2.23,2.23,2.225,2.225,2.221,2.216,2.216,2.212,2.212,2.208,2.203,2.203,2.199,2.199,2.194,2.194,2.19
1.702,1.705,1.705,1.705,1.708,1.708,1.708,1.71,1.71,1.71,1.71,1.713,1.715,1.715,1.718,1.718,1.718,1.718,1.721,1.718,1.718,1.718,1.718,1.718,1.718,1.715,1.713,1.71,1.71,1.71,1.708,1.705,1.702,1.7,1.7,1.697,1.695,1.689,1.684,1.679,1.674,1.666,1.659,1.652,1.647,1.639,1.632,1.627,1.62,1.618,1.613,1.611,1.606,1.604,1.601,1.599,1.597,1.595,1.592,1.588,1.585,1.583,1.579,1.576,1.574,1.572,1.572,1.57,1.567,1.567,1.567,1.567,1.57,1.57,1.572,1.574,1.576,1.581,1.585,1.585,1.588,1.59,1.59,1.592,1.592,1.592,1.592,1.592,1.592,1.595,1.595,1.595,1.592,1.59,1.588,1.588,1.585,1.583,1.581,1.579,1.576,1.574,1.574,1.572,1.572,1.57,1.57,1.567,1.57,1.572,1.572,1.572,1.572,1.574,1.576,1.579,1.579,1.581,1.581,1.583,1.583,1.585,1.585,1.583,1.583,1.583,1.581,1.581,1.581,1.583,1.583,1.583,1.585,1.585,1.588,1.59,1.59,1.592,1.592,1.595,1.595,1.597,1.599,1.599,1.599,1.601,1.601,1.601,1.601,1.604,1.606,1.606,1.608,1.611,1.613,1.613,1.615,1.615,1.615,1.618,1.618,1.618,1.62,1.623,1.625,1.63,1.632,1.635,1.637,1.639,1.642,1.644,1.647,1.649,1.649,1.652,1.657,1.659,1.659,1.661,1.664,1.664,1.666,1.669,1.672,1.674,1.677,1.679,1.682,1.684,1.687,1.692,1.695,1.697,1.7,1.7,1.702,1.702,1.702,1.702,1.702,1.702,1.7,1.702,1.702,1.702,1.705,1.705,1.705,1.705,1.702,1.705,1.702,1.702,1.7,1.697,1.695,1.695,1.695,1.695,1.695,1.695,1.697,1.697,1.697,1.7,1.7,1.7,1.7,1.7,1.7,1.7,1.702,1.702,1.702,1.702,1.702,1.702,1.702,1.7,1.7,1.697,1.695,1.692,1.692,1.692,1.695,1.7,1.705,1.71,1.715,1.721,1.729,1.734,1.74,1.742,1.745,1.745,1.745,1.745,1.745,1.742,1.74,1.737,1.734,1.732,1.729,1.726,1.724,1.721,1.718,1.713,1.71,1.708,1.705,1.7,1.697,1.695,1.692,1.689,1.687,1.687,1.684,1.684,1.682,1.679,1.677,1.672,1.669,1.664,1.661,1.654,1.652,1.647,1.642,1.637,1.635,1.632,1.627,1.627,1.627,1.625,1.623,1.623,1.625,1.625,1.627,1.627,1.63,1.63,1.63,1.632,1.632,1.635,1.635,1.637,1.639,1.642,1.644,1.652,1.652,1.654,1.659,1.661,0,0,0,0,3.835,3.821,3.808,3.808,3.795,3.782,3.795,3.782,3.769,3.757,3.757,0,0,0,0,0,0,0,0,0,0,0,0,1.759,1.767,1.776,1.79,0,0,0,1.859,1.878,1.894,1.927,1.979,2.16,0,0,2.29,0,2.368,2.378,2.399,2.409,2.409,2.42,2.425,2.425,2.42,2.414,2.409,2.404,2.404,2.409,2.414,2.425,2.43,2.441,2.446,2.463,2.468,2.474,2.485,2.485,2.49,2.49,2.49,2.49,2.49,2.496,2.496,2.502,2.502,2.502,2.502,2.502,2.502,2.496,2.496,2.49,2.485,2.485,2.479,2.479,2.474,2.474,2.468,2.468,2.463,2.457,2.452,2.452,2.446,2.436,2.43,2.43,2.425,2.425,2.42,2.414,2.409,2.404,2.399,2.394,2.388,2.388,2.383,2.383,2.378,2.378,2.373,2.368,2.368,2.368,2.368,2.368,2.368,2.368,2.368,2.368,2.368,2.373,2.373,2.373,2.373,2.373,2.373,2.373,2.373,2.368,2.368,2.368,2.368,2.363,2.363,2.358,2.358,2.353,2.353,2.353,2.353,2.348,2.348,2.348,2.348,2.343,2.343,2.343,2.338,2.338,2.333,2.328,2.328,2.318,2.314,2.309,2.304,2.299,2.29,2.285,2.28,2.276,2.271,2.266,2.262,2.257,2.252,2.248,2.243,2.243,2.239,2.234,2.234,2.23,2.23,2.225,2.225,2.221,2.216,2.212,2.212,2.212,2.208,2.203,2.199,2.194,2.194,2.19,2.186,2.186
1.705,1.708,1.708,1.708,1.708,1.71,1.71,1.71,1.713,1.713,1.713,1.715,1.715,1.718,1.718,1.721,1.721,1.721,1.721,1.721,1.721,1.721,1.721,1.721,1.721,1.718,1.715,1.715,1.715,1.713,1.713,1.71,1.708,1.705,1.702,1.702,1.697,1.695,1.689,1.684,1.679,1.672,1.666,1.659,1.652,1.644,1.639,1.635,1.627,1.625,1.62,1.615,1.613,1.608,1.606,1.604,1.599,1.597,1.595,1.592,1.588,1.585,1.583,1.579,1.576,1.576,1.574,1.572,1.57,1.57,1.57,1.57,1.57,1.572,1.574,1.576,1.581,1.583,1.588,1.588,1.592,1.592,1.595,1.597,1.597,1.597,1.597,1.597,1.597,1.597,1.597,1.597,1.595,1.592,1.59,1.59,1.59,1.588,1.585,1.583,1.579,1.579,1.579,1.576,1.574,1.574,1.572,1.572,1.574,1.574,1.574,1.574,1.576,1.579,1.579,1.581,1.583,1.585,1.585,1.585,1.585,1.588,1.588,1.585,1.585,1.585,1.583,1.585,1.585,1.585,1.585,1.585,1.588,1.59,1.592,1.595,1.595,1.597,1.597,1.599,1.601,1.601,1.604,1.606,1.606,1.608,1.608,1.608,1.608,1.611,1.611,1.613,1.615,1.615,1.618,1.62,1.623,1.623,1.623,1.623,1.623,1.625,1.627,1.63,1.632,1.637,1.639,1.642,1.644,1.647,1.649,1.652,1.654,1.654,1.657,1.659,1.661,1.664,1.664,1.666,1.669,1.669,1.672,1.674,1.677,1.679,1.682,1.684,1.687,1.692,1.697,1.7,1.702,1.705,1.705,1.708,1.708,1.708,1.708,1.708,1.705,1.705,1.705,1.705,1.705,1.708,1.708,1.713,1.713,1.713,1.713,1.71,1.71,1.708,1.705,1.705,1.702,1.702,1.702,1.702,1.702,1.705,1.705,1.705,1.708,1.708,1.708,1.708,1.708,1.708,1.708,1.708,1.71,1.713,1.713,1.715,1.715,1.715,1.715,1.715,1.715,1.713,1.71,1.708,1.708,1.708,1.71,1.713,1.715,1.721,1.726,1.732,1.737,1.742,1.745,1.748,1.751,1.751,1.751,1.751,1.748,1.745,1.742,1.74,1.737,1.737,1.734,1.732,1.729,1.724,1.721,1.718,1.713,1.71,1.705,1.702,1.7,1.697,1.692,1.689,1.689,1.689,1.687,1.684,1.684,1.682,1.679,1.672,1.669,1.666,1.661,1.657,1.652,1.649,1.644,1.639,1.637,1.632,1.63,1.627,1.627,1.625,1.625,1.625,1.625,1.627,1.63,1.63,1.63,1.627,1.63,1.632,1.632,1.632,1.635,1.635,1.637,1.639,1.647,1.649,1.652,1.654,0,0,0,0,0,0,3.821,3.821,3.808,3.795,3.795,3.782,3.782,3.769,3.769,3.744,3.731,0,0,0,0,0,0,0,0,0,0,0,0,0,0,0,1.787,1.802,0,0,0,0,0,0,0,0,0,2.358,2.404,2.414,2.441,2.463,2.468,2.474,2.479,2.496,2.49,2.496,2.49,2.485,2.485,2.479,2.479,2.479,2.49,2.496,2.496,2.513,2.513,2.524,2.53,2.536,2.536,2.536,2.536,2.542,2.536,2.536,2.536,2.536,2.542,2.542,2.542,2.542,2.542,2.542,2.536,2.536,2.53,2.524,2.519,2.513,2.507,2.507,2.502,2.496,2.496,2.485,2.485,2.479,2.479,2.474,2.463,2.463,2.457,2.452,2.452,2.446,2.441,2.436,2.43,2.425,2.42,2.414,2.404,2.399,2.399,2.394,2.388,2.383,2.378,2.378,2.373,2.373,2.373,2.373,2.373,2.373,2.373,2.373,2.378,2.378,2.378,2.378,2.378,2.378,2.378,2.378,2.378,2.373,2.373,2.368,2.368,2.363,2.363,2.358,2.358,2.358,2.353,2.353,2.353,2.353,2.348,2.348,2.348,2.348,2.343,2.343,2.343,2.338,2.333,2.333,2.328,2.323,2.318,2.309,2.304,2.299,2.29,2.285,2.28,2.276,2.271,2.266,2.262,2.257,2.252,2.248,2.243,2.243,2.239,2.239,2.234,2.23,2.23,2.225,2.225,2.221,2.216,2.216,2.212,2.208,2.208,2.199,2.199,2.194,2.19,2.186,2.182,2.173
1.708,1.708,1.71,1.71,1.71,1.713,1.713,1.713,1.715,1.715,1.715,1.715,1.718,1.721,1.721,1.724,1.724,1.724,1.724,1.726,1.726,1.724,1.726,1.724,1.724,1.724,1.721,1.718,1.718,1.718,1.718,1.713,1.71,1.708,1.705,1.705,1.702,1.7,1.695,1.689,1.684,1.679,1.672,1.666,1.659,1.652,1.647,1.642,1.635,1.63,1.625,1.62,1.618,1.613,1.608,1.606,1.604,1.601,1.599,1.595,1.592,1.59,1.585,1.583,1.581,1.579,1.576,1.576,1.574,1.574,1.574,1.574,1.574,1.574,1.576,1.581,1.583,1.588,1.59,1.592,1.595,1.597,1.599,1.601,1.601,1.601,1.599,1.599,1.599,1.599,1.599,1.599,1.597,1.595,1.595,1.592,1.592,1.59,1.59,1.585,1.583,1.581,1.581,1.579,1.579,1.576,1.576,1.576,1.576,1.579,1.579,1.579,1.581,1.581,1.583,1.585,1.585,1.588,1.588,1.588,1.588,1.588,1.588,1.588,1.588,1.588,1.588,1.588,1.588,1.59,1.59,1.59,1.592,1.595,1.597,1.599,1.599,1.601,1.604,1.604,1.606,1.606,1.608,1.611,1.613,1.615,1.615,1.618,1.618,1.62,1.62,1.623,1.625,1.625,1.625,1.627,1.627,1.63,1.63,1.63,1.63,1.632,1.635,1.637,1.639,1.642,1.647,1.649,1.652,1.654,1.657,1.659,1.661,1.664,1.664,1.666,1.666,1.669,1.672,1.674,1.674,1.677,1.677,1.679,1.682,1.684,1.687,1.689,1.695,1.697,1.7,1.705,1.708,1.71,1.71,1.713,1.713,1.713,1.713,1.71,1.71,1.71,1.71,1.71,1.71,1.715,1.715,1.718,1.718,1.718,1.718,1.718,1.715,1.713,1.71,1.71,1.708,1.708,1.71,1.71,1.71,1.713,1.713,1.713,1.713,1.715,1.715,1.715,1.715,1.715,1.715,1.715,1.715,1.718,1.721,1.721,1.724,1.724,1.726,1.726,1.726,1.726,1.726,1.724,1.724,1.724,1.726,1.726,1.729,1.732,1.737,1.74,1.742,1.748,1.751,1.754,1.754,1.756,1.754,1.754,1.751,1.751,1.748,1.745,1.742,1.74,1.737,1.737,1.732,1.729,1.726,1.721,1.718,1.715,1.71,1.705,1.702,1.697,1.695,1.692,1.692,1.689,1.689,1.684,1.682,1.682,1.679,1.674,1.672,1.666,1.664,1.657,1.654,1.649,1.647,1.642,1.637,1.635,1.63,1.63,1.63,1.627,1.627,1.625,1.627,1.627,1.63,1.63,1.63,1.63,1.63,1.632,1.632,1.632,1.635,1.635,1.637,1.639,1.644,1.649,1.652,0,0,0,0,0,0,0,3.808,3.808,3.808,3.782,3.782,3.769,3.769,3.769,3.757,3.744,3.719,3.719,0,0,0,0,0,0,0,0,0,0,0,0,0,0,0,0,0,0,0,0,0,0,0,0,2.524,2.536,2.536,2.542,2.536,2.53,2.536,2.542,2.548,2.548,2.559,2.559,2.559,2.559,2.559,2.559,2.559,2.565,2.571,2.571,2.571,2.583,2.589,2.595,2.595,2.595,2.601,2.595,2.595,2.589,2.589,2.583,2.583,2.583,2.583,2.589,2.589,2.583,2.583,2.583,2.583,2.577,2.571,2.559,2.553,2.542,2.536,2.53,2.524,2.524,2.513,2.507,2.502,2.502,2.496,2.49,2.485,2.479,2.479,2.474,2.474,2.468,2.463,2.452,2.446,2.441,2.436,2.43,2.425,2.414,2.409,2.404,2.399,2.394,2.388,2.383,2.383,2.378,2.378,2.378,2.378,2.378,2.378,2.383,2.383,2.383,2.383,2.383,2.383,2.383,2.383,2.383,2.378,2.378,2.373,2.373,2.368,2.368,2.363,2.363,2.358,2.358,2.358,2.358,2.353,2.353,2.353,2.348,2.348,2.348,2.348,2.343,2.343,2.343,2.338,2.333,2.328,2.323,2.318,2.314,2.304,2.299,2.294,2.285,2.28,2.276,2.271,2.266,2.262,2.257,2.252,2.248,2.248,2.243,2.239,2.239,2.234,2.234,2.23,2.225,2.225,2.221,2.216,2.216,2.212,2.208,2.203,2.199,2.194,2.19,2.186,2.186,2.177,2.173
1.71,1.71,1.71,1.71,1.713,1.713,1.715,1.715,1.715,1.718,1.718,1.718,1.721,1.721,1.724,1.724,1.726,1.724,1.726,1.726,1.726,1.726,1.729,1.726,1.726,1.726,1.724,1.724,1.724,1.721,1.721,1.715,1.715,1.71,1.71,1.71,1.708,1.702,1.7,1.695,1.692,1.687,1.679,1.674,1.666,1.659,1.654,1.649,1.644,1.637,1.632,1.627,1.623,1.62,1.615,1.611,1.606,1.604,1.601,1.599,1.597,1.592,1.59,1.588,1.585,1.581,1.579,1.579,1.579,1.576,1.576,1.576,1.576,1.579,1.581,1.583,1.585,1.59,1.595,1.597,1.599,1.601,1.601,1.604,1.604,1.604,1.604,1.604,1.601,1.601,1.601,1.599,1.599,1.597,1.597,1.595,1.595,1.592,1.592,1.59,1.585,1.585,1.583,1.583,1.581,1.581,1.579,1.579,1.579,1.581,1.581,1.581,1.581,1.583,1.585,1.588,1.588,1.59,1.59,1.59,1.59,1.59,1.59,1.59,1.59,1.59,1.59,1.59,1.592,1.592,1.592,1.595,1.597,1.597,1.599,1.604,1.604,1.606,1.608,1.611,1.611,1.613,1.615,1.618,1.62,1.623,1.625,1.627,1.627,1.63,1.632,1.632,1.632,1.632,1.635,1.635,1.637,1.637,1.637,1.637,1.639,1.639,1.644,1.647,1.647,1.652,1.654,1.657,1.659,1.661,1.664,1.664,1.666,1.669,1.672,1.674,1.674,1.677,1.679,1.679,1.682,1.682,1.682,1.684,1.687,1.689,1.692,1.695,1.7,1.702,1.708,1.708,1.71,1.713,1.715,1.718,1.718,1.718,1.715,1.715,1.715,1.715,1.715,1.715,1.718,1.721,1.721,1.724,1.724,1.724,1.724,1.724,1.718,1.715,1.715,1.715,1.713,1.715,1.715,1.715,1.715,1.718,1.721,1.721,1.721,1.721,1.721,1.721,1.721,1.721,1.721,1.721,1.724,1.726,1.726,1.729,1.732,1.732,1.734,1.734,1.737,1.737,1.737,1.737,1.734,1.734,1.737,1.737,1.737,1.74,1.742,1.745,1.748,1.751,1.754,1.754,1.756,1.756,1.756,1.756,1.754,1.751,1.751,1.748,1.745,1.742,1.742,1.74,1.737,1.734,1.732,1.726,1.721,1.718,1.713,1.708,1.705,1.7,1.695,1.692,1.692,1.689,1.689,1.687,1.684,1.682,1.679,1.674,1.672,1.666,1.664,1.659,1.654,1.652,1.647,1.644,1.642,1.637,1.632,1.632,1.63,1.627,1.625,1.627,1.627,1.63,1.63,1.63,1.63,1.627,1.627,1.63,1.632,1.632,1.632,1.635,1.635,1.639,1.644,0,0,0,0,0,0,0,3.808,3.808,3.808,3.795,3.795,3.782,3.769,3.757,3.757,3.757,3.744,3.719,3.731,3.706,3.706,3.706,0,0,0,0,0,0,0,0,0,0,0,0,0,0,0,0,0,0,0,2.677,2.639,2.632,2.614,2.608,2.595,2.589,2.589,2.583,2.583,2.589,2.589,2.601,2.608,2.62,2.62,2.626,2.632,2.639,2.645,2.645,2.645,2.645,2.651,2.658,2.658,2.664,2.664,2.664,2.658,2.658,2.651,2.645,2.639,2.639,2.632,2.632,2.632,2.632,2.632,2.632,2.632,2.626,2.62,2.614,2.608,2.601,2.583,2.577,2.565,2.559,2.553,2.548,2.536,2.53,2.524,2.519,2.519,2.513,2.507,2.507,2.502,2.496,2.496,2.49,2.485,2.474,2.468,2.463,2.457,2.446,2.441,2.43,2.42,2.414,2.404,2.399,2.394,2.394,2.388,2.383,2.383,2.383,2.383,2.383,2.383,2.388,2.388,2.388,2.388,2.388,2.388,2.388,2.388,2.383,2.383,2.378,2.373,2.373,2.373,2.368,2.368,2.363,2.363,2.363,2.358,2.358,2.358,2.353,2.353,2.348,2.348,2.348,2.348,2.343,2.343,2.343,2.338,2.333,2.328,2.328,2.318,2.314,2.304,2.299,2.294,2.29,2.285,2.276,2.271,2.271,2.262,2.257,2.252,2.252,2.248,2.243,2.243,2.239,2.234,2.234,2.23,2.225,2.225,2.221,2.216,2.216,2.212,2.208,2.203,2.199,2.19,2.186,2.182,2.177,2.173,2.169
1.71,1.71,1.71,1.713,1.713,1.713,1.715,1.718,1.718,1.718,1.718,1.721,1.721,1.724,1.726,1.726,1.726,1.726,1.729,1.729,1.729,1.729,1.729,1.729,1.729,1.729,1.726,1.724,1.724,1.724,1.724,1.721,1.718,1.718,1.715,1.713,1.713,1.708,1.705,1.702,1.697,1.695,1.687,1.682,1.677,1.669,1.664,1.659,1.652,1.647,1.642,1.635,1.63,1.627,1.623,1.618,1.613,1.611,1.608,1.604,1.599,1.597,1.595,1.59,1.59,1.585,1.583,1.583,1.581,1.581,1.581,1.581,1.583,1.583,1.585,1.588,1.592,1.595,1.597,1.599,1.604,1.604,1.606,1.608,1.608,1.608,1.606,1.606,1.604,1.604,1.604,1.601,1.599,1.599,1.599,1.597,1.597,1.595,1.595,1.592,1.59,1.588,1.588,1.588,1.585,1.585,1.583,1.583,1.583,1.583,1.583,1.583,1.583,1.585,1.585,1.588,1.588,1.59,1.59,1.592,1.59,1.59,1.59,1.59,1.59,1.59,1.592,1.592,1.595,1.595,1.597,1.597,1.599,1.601,1.604,1.606,1.608,1.611,1.613,1.615,1.615,1.62,1.623,1.625,1.627,1.63,1.632,1.635,1.637,1.642,1.642,1.644,1.644,1.642,1.642,1.644,1.644,1.644,1.644,1.647,1.647,1.647,1.652,1.654,1.657,1.659,1.661,1.664,1.666,1.669,1.669,1.672,1.674,1.677,1.677,1.679,1.682,1.684,1.684,1.687,1.687,1.689,1.689,1.692,1.695,1.697,1.697,1.7,1.705,1.71,1.713,1.715,1.715,1.718,1.721,1.721,1.724,1.724,1.721,1.721,1.721,1.721,1.724,1.724,1.726,1.726,1.726,1.726,1.729,1.729,1.729,1.726,1.724,1.721,1.721,1.718,1.721,1.721,1.721,1.721,1.724,1.724,1.729,1.726,1.726,1.726,1.726,1.726,1.726,1.726,1.726,1.726,1.729,1.732,1.732,1.737,1.737,1.74,1.742,1.742,1.745,1.745,1.745,1.745,1.742,1.742,1.742,1.742,1.742,1.745,1.745,1.748,1.748,1.754,1.754,1.756,1.756,1.756,1.756,1.756,1.756,1.754,1.751,1.748,1.748,1.745,1.742,1.74,1.74,1.737,1.734,1.729,1.724,1.718,1.715,1.71,1.708,1.7,1.695,1.692,1.689,1.689,1.687,1.687,1.687,1.684,1.682,1.677,1.674,1.669,1.666,1.664,1.659,1.654,1.649,1.647,1.644,1.639,1.635,1.632,1.632,1.63,1.627,1.627,1.627,1.63,1.632,1.632,1.63,1.627,1.63,1.63,1.63,1.632,1.632,1.632,1.635,1.637,0,0,0,0,0,0,3.808,3.808,3.795,3.795,3.795,3.782,3.782,3.782,3.757,3.744,3.744,3.744,3.731,3.719,3.719,3.706,3.706,3.694,3.694,3.682,3.682,3.67,3.67,0,0,0,0,0,0,0,0,0,0,0,0,2.916,2.856,2.806,2.75,2.73,2.71,2.69,2.677,2.67,2.67,2.664,2.658,2.658,2.664,2.67,2.677,2.69,2.696,2.703,2.71,2.723,2.723,2.73,2.73,2.736,2.736,2.736,2.736,2.736,2.73,2.723,2.723,2.716,2.71,2.703,2.696,2.69,2.683,2.683,2.683,2.677,2.677,2.67,2.67,2.664,2.664,2.658,2.645,2.632,2.62,2.608,2.601,2.589,2.583,2.571,2.565,2.553,2.548,2.548,2.542,2.536,2.536,2.53,2.524,2.524,2.519,2.513,2.507,2.496,2.49,2.485,2.474,2.468,2.452,2.441,2.436,2.425,2.414,2.409,2.404,2.399,2.388,2.388,2.388,2.388,2.388,2.388,2.394,2.394,2.394,2.399,2.399,2.394,2.394,2.394,2.388,2.388,2.383,2.383,2.378,2.378,2.373,2.373,2.368,2.363,2.363,2.363,2.358,2.358,2.353,2.353,2.353,2.353,2.348,2.348,2.348,2.343,2.343,2.343,2.338,2.333,2.328,2.328,2.318,2.314,2.309,2.304,2.299,2.29,2.285,2.28,2.276,2.271,2.266,2.262,2.257,2.252,2.252,2.248,2.243,2.239,2.239,2.234,2.23,2.225,2.225,2.221,2.221,2.216,2.212,2.208,2.203,2.199,2.19,2.186,2.182,2.177,2.173,2.164
1.71,1.713,1.713,1.713,1.713,1.715,1.715,1.718,1.718,1.718,1.721,1.721,1.724,1.726,1.726,1.726,1.729,1.729,1.729,1.732,1.732,1.732,1.732,1.732,1.732,1.732,1.729,1.729,1.729,1.729,1.729,1.726,1.724,1.721,1.721,1.721,1.718,1.715,1.713,1.708,1.705,1.702,1.697,1.689,1.684,1.679,1.674,1.669,1.661,1.657,1.649,1.644,1.639,1.635,1.63,1.625,1.618,1.615,1.613,1.608,1.606,1.601,1.599,1.597,1.595,1.592,1.59,1.588,1.588,1.588,1.588,1.588,1.588,1.588,1.59,1.595,1.597,1.599,1.601,1.604,1.606,1.608,1.611,1.613,1.613,1.611,1.611,1.608,1.608,1.606,1.604,1.604,1.601,1.601,1.601,1.599,1.599,1.599,1.599,1.597,1.595,1.595,1.595,1.592,1.59,1.59,1.588,1.588,1.588,1.588,1.585,1.585,1.585,1.588,1.588,1.588,1.59,1.59,1.592,1.592,1.59,1.59,1.59,1.59,1.592,1.592,1.592,1.595,1.597,1.597,1.599,1.599,1.601,1.604,1.606,1.611,1.613,1.615,1.618,1.618,1.62,1.625,1.627,1.632,1.635,1.639,1.642,1.644,1.649,1.652,1.652,1.654,1.654,1.652,1.652,1.652,1.652,1.652,1.652,1.654,1.654,1.657,1.659,1.661,1.664,1.666,1.669,1.672,1.674,1.674,1.677,1.679,1.679,1.682,1.684,1.687,1.687,1.689,1.692,1.692,1.692,1.695,1.697,1.697,1.7,1.702,1.705,1.708,1.71,1.715,1.721,1.721,1.724,1.724,1.726,1.726,1.729,1.729,1.726,1.726,1.726,1.726,1.729,1.729,1.732,1.732,1.732,1.734,1.734,1.734,1.734,1.732,1.729,1.726,1.726,1.724,1.724,1.724,1.726,1.729,1.729,1.732,1.734,1.734,1.732,1.734,1.732,1.732,1.732,1.732,1.732,1.732,1.734,1.737,1.74,1.742,1.745,1.745,1.748,1.751,1.754,1.754,1.754,1.751,1.751,1.751,1.748,1.748,1.748,1.751,1.751,1.751,1.751,1.754,1.756,1.756,1.756,1.754,1.754,1.756,1.754,1.754,1.751,1.748,1.745,1.745,1.745,1.742,1.742,1.74,1.737,1.732,1.729,1.724,1.718,1.713,1.71,1.702,1.697,1.695,1.692,1.692,1.689,1.689,1.687,1.687,0,0,0,0,0,0,0,0,0,0,0,0,0,0,0,0,0,0,0,0,0,1.63,1.63,1.627,1.63,1.63,1.63,1.63,1.632,0,0,0,0,0,0,3.808,3.808,3.821,3.808,3.808,3.795,3.795,3.795,3.782,3.769,3.757,3.744,3.731,3.731,3.731,3.731,3.719,3.706,3.706,3.706,3.694,3.694,3.682,3.67,3.67,3.657,3.657,3.645,3.633,0,0,0,0,0,0,0,0,3.078,3.011,2.947,2.886,2.842,2.82,2.791,2.771,2.75,2.743,2.736,2.73,2.723,2.73,2.736,2.743,2.757,2.764,2.771,2.777,2.791,2.799,2.806,2.813,2.813,2.806,2.806,2.806,2.806,2.806,2.799,2.799,2.784,2.777,2.764,2.757,2.75,2.743,2.736,2.73,2.73,2.723,2.723,2.716,2.71,2.71,2.696,2.69,2.677,2.664,2.651,2.639,2.626,2.62,2.608,2.595,2.583,2.577,2.565,2.565,2.559,2.553,2.553,2.548,2.548,2.542,2.536,2.53,2.524,2.519,2.513,2.502,2.496,2.479,2.468,2.457,2.446,2.43,2.425,2.414,2.409,2.399,2.394,2.394,2.394,2.394,2.394,2.394,2.394,2.399,2.399,2.399,2.399,2.399,2.399,2.394,2.394,2.388,2.388,2.383,2.383,2.378,2.373,2.373,2.368,2.363,2.363,2.358,2.358,2.353,2.353,2.353,2.348,2.348,2.348,2.348,2.343,2.343,2.343,2.338,2.338,2.333,2.328,2.328,2.323,2.314,2.309,2.304,2.299,2.294,2.29,2.285,2.276,2.271,2.266,2.262,2.262,2.257,2.252,2.248,2.243,2.239,2.239,2.234,2.234,2.23,2.225,2.225,2.221,2.216,2.212,2.208,2.203,2.199,2.19,2.186,2.177,2.173,2.169,2.164
1.713,1.713,1.713,1.713,1.715,1.715,1.718,1.718,1.721,1.721,1.721,1.724,1.726,1.726,1.726,1.729,1.729,1.729,1.729,1.732,1.734,1.734,1.734,1.734,1.734,1.734,1.732,1.732,1.732,1.729,1.729,1.726,1.726,1.726,1.724,1.724,1.724,1.718,1.715,1.715,1.71,1.708,1.702,1.697,1.692,1.687,1.682,1.677,1.669,1.664,1.659,1.652,1.647,1.642,1.637,1.632,1.625,1.62,1.618,1.613,1.608,1.606,1.604,1.599,1.597,1.597,1.595,1.592,1.592,1.592,1.592,1.592,1.592,1.595,1.597,1.599,1.599,1.604,1.606,1.608,1.611,1.613,1.613,1.615,1.615,1.613,1.611,1.611,1.608,1.606,1.606,1.604,1.604,1.604,1.604,1.601,1.601,1.601,1.601,1.599,1.599,1.597,1.597,1.597,1.597,1.595,1.592,1.592,1.59,1.59,1.588,1.588,1.588,1.588,1.588,1.588,1.59,1.592,1.592,1.592,1.592,1.59,1.59,1.59,1.592,1.592,1.595,1.595,1.597,1.599,1.599,1.601,1.604,1.606,1.608,1.613,1.615,1.618,1.62,1.623,1.623,1.627,1.632,1.637,1.642,1.644,1.649,1.652,1.657,1.661,1.661,1.664,1.661,1.661,1.661,1.661,1.661,1.659,1.661,1.661,1.661,1.664,1.666,1.669,1.672,1.674,1.677,1.679,1.682,1.682,1.684,1.684,1.687,1.687,1.689,1.692,1.692,1.695,1.697,1.697,1.7,1.702,1.705,1.705,1.708,1.71,1.713,1.713,1.718,1.724,1.724,1.726,1.729,1.732,1.732,1.734,1.734,1.734,1.732,1.732,1.732,1.734,1.734,1.737,1.737,1.737,1.74,1.742,1.742,1.74,1.74,1.737,1.734,1.732,1.732,1.732,1.732,1.732,1.734,1.734,1.737,1.74,1.742,1.742,1.742,1.74,1.737,1.737,1.737,1.737,1.737,1.737,1.74,1.742,1.745,1.748,1.751,1.754,1.754,1.756,1.759,1.759,1.756,1.756,1.756,1.756,1.754,1.754,1.754,1.754,1.754,1.754,1.754,1.754,1.756,1.754,1.754,1.754,1.754,1.751,1.751,1.751,1.748,1.745,1.748,1.745,1.745,1.742,1.742,0,0,0,0,0,0,0,0,0,0,0,0,0,0,0,0,0,0,0,0,0,0,0,0,0,0,0,0,0,0,0,0,0,0,0,0,0,0,1.632,1.63,1.63,1.63,1.63,1.63,1.632,0,0,0,0,0,3.808,3.808,3.821,3.808,3.821,3.808,3.808,3.795,3.795,3.782,3.782,3.769,3.757,3.731,3.731,3.719,3.719,3.719,3.706,3.706,3.694,3.694,3.682,3.682,3.682,3.682,3.67,3.657,3.657,3.645,3.633,3.622,3.598,0,0,0,0,0,0,3.139,3.07,3.003,2.955,2.909,2.886,2.856,2.842,2.827,2.82,2.806,2.806,2.806,2.806,2.806,2.813,2.827,2.834,2.849,2.856,2.864,2.878,2.886,2.886,2.886,2.894,2.894,2.886,2.878,2.878,2.864,2.856,2.849,2.834,2.82,2.806,2.799,2.791,2.784,2.784,2.777,2.771,2.764,2.757,2.75,2.743,2.736,2.723,2.71,2.696,2.683,2.67,2.658,2.645,2.632,2.62,2.608,2.595,2.589,2.583,2.577,2.571,2.571,2.565,2.565,2.565,2.559,2.553,2.548,2.536,2.53,2.519,2.507,2.49,2.479,2.468,2.452,2.441,2.43,2.42,2.409,2.404,2.404,2.399,2.399,2.399,2.399,2.399,2.404,2.404,2.404,2.404,2.404,2.404,2.404,2.399,2.394,2.394,2.388,2.388,2.383,2.378,2.373,2.373,2.368,2.363,2.363,2.358,2.353,2.353,2.348,2.348,2.348,2.348,2.343,2.343,2.343,2.343,2.338,2.338,2.333,2.333,2.328,2.328,2.318,2.318,2.314,2.304,2.299,2.294,2.29,2.285,2.28,2.276,2.271,2.266,2.262,2.257,2.252,2.252,2.248,2.243,2.239,2.239,2.234,2.23,2.23,2.225,2.221,2.221,2.216,2.212,2.203,2.199,2.19,2.186,2.182,2.177,2.173,2.169
1.713,1.713,1.715,1.715,1.715,1.718,1.718,1.721,1.724,1.724,1.724,1.726,1.726,1.726,1.729,1.729,1.732,1.732,1.732,1.732,1.734,1.734,1.737,1.737,1.737,1.734,1.734,1.732,1.734,1.732,1.729,1.729,1.729,1.729,1.729,1.726,1.726,1.724,1.721,1.718,1.715,1.715,1.71,1.705,1.7,1.695,1.689,1.684,1.679,1.672,1.666,1.659,1.654,1.649,1.644,1.639,1.632,1.627,1.623,1.618,1.615,1.611,1.608,1.606,1.604,1.601,1.599,1.599,1.597,1.597,1.597,1.599,1.599,1.601,1.601,1.604,1.604,1.608,1.611,1.611,1.615,1.615,1.615,1.618,1.615,1.615,1.615,1.613,1.611,1.608,1.608,1.606,1.606,1.606,1.606,1.604,1.604,1.606,1.606,1.604,1.604,1.601,1.601,1.601,1.599,1.599,1.597,1.595,1.592,1.592,1.59,1.59,1.59,1.59,1.59,1.59,1.592,1.592,1.592,1.59,1.59,1.59,1.592,1.592,1.592,1.595,1.592,1.597,1.599,1.601,1.601,1.604,1.606,1.606,1.611,1.613,1.618,1.62,1.623,1.623,1.627,1.63,1.637,1.642,1.644,1.649,1.654,1.659,1.666,1.669,1.672,1.672,1.669,1.669,1.669,1.669,1.666,1.666,1.666,1.666,1.669,1.672,1.677,1.677,1.679,1.682,1.684,1.687,1.687,1.689,1.689,1.692,1.692,1.695,1.697,1.697,1.7,1.7,1.702,1.702,1.705,1.708,1.71,1.71,1.713,1.715,1.718,1.721,1.724,1.729,1.732,1.732,1.734,1.737,1.737,1.74,1.74,1.74,1.737,1.737,1.74,1.742,1.742,1.742,1.745,1.745,1.745,1.748,1.748,1.745,1.745,1.742,1.742,1.737,1.737,1.737,1.737,1.74,1.74,1.742,1.745,1.748,1.751,1.751,1.748,1.748,1.745,1.745,1.742,1.742,1.742,1.742,1.745,1.748,1.751,1.754,1.754,1.756,1.759,1.762,1.762,1.762,1.762,1.762,1.759,1.759,1.756,1.756,1.756,1.754,1.754,1.754,1.754,1.754,1.754,1.751,1.751,1.751,1.751,1.751,1.748,1.748,1.742,1.742,1.742,1.742,1.74,1.737,1.737,0,0,0,0,0,0,0,0,0,0,0,0,0,0,0,0,0,0,0,0,0,0,0,0,0,0,0,0,0,0,0,0,0,0,0,0,0,0,1.635,1.632,0,1.63,1.63,1.635,0,0,0,0,3.808,3.808,3.808,3.808,3.821,3.821,3.835,3.821,3.808,3.795,3.795,3.782,3.782,3.769,3.757,3.731,3.719,3.719,3.719,3.706,3.706,3.694,3.694,3.694,3.694,3.694,3.682,3.682,3.67,3.657,3.657,3.633,3.633,3.622,3.586,3.563,3.541,3.496,3.42,3.338,3.259,0,0,0,0,2.979,2.955,2.932,2.916,2.901,2.894,2.886,2.878,2.878,2.878,2.878,2.886,2.901,2.901,2.909,2.916,2.924,2.932,2.94,2.94,2.947,2.947,2.947,2.94,2.932,2.924,2.916,2.909,2.894,2.886,2.871,2.856,2.842,2.834,2.827,2.82,2.813,2.806,2.799,2.791,2.784,2.771,2.764,2.75,2.736,2.723,2.71,2.696,2.683,2.664,2.651,2.639,2.626,2.614,2.608,2.601,2.595,2.589,2.583,2.583,2.583,2.577,2.571,2.565,2.559,2.548,2.542,2.53,2.519,2.507,2.49,2.474,2.463,2.446,2.436,2.425,2.42,2.409,2.404,2.404,2.404,2.404,2.404,2.404,2.409,2.409,2.409,2.409,2.409,2.409,2.409,2.404,2.399,2.394,2.394,2.388,2.383,2.383,2.378,2.373,2.368,2.363,2.358,2.358,2.353,2.348,2.348,2.343,2.343,2.343,2.343,2.338,2.338,2.338,2.333,2.333,2.333,2.328,2.328,2.323,2.318,2.318,2.314,2.309,2.299,2.294,2.29,2.285,2.28,2.276,2.271,2.266,2.266,2.262,2.257,2.252,2.248,2.243,2.243,2.239,2.234,2.234,2.23,2.225,2.225,2.221,2.216,2.212,2.203,2.199,2.19,2.186,2.182,2.177,2.173,2.169
1.713,1.715,1.715,1.715,1.718,1.718,1.721,1.721,1.724,1.724,1.726,1.726,1.726,1.726,1.729,1.732,1.732,1.732,1.732,1.732,1.734,1.734,1.737,1.737,1.737,1.734,1.734,1.734,1.734,1.734,1.732,1.732,1.729,1.729,1.729,1.732,1.732,1.726,1.724,1.724,1.721,1.721,1.718,1.713,1.708,1.702,1.7,1.695,1.687,1.682,1.677,1.666,1.661,1.657,1.652,1.644,1.639,1.635,1.627,1.623,1.62,1.615,1.613,1.611,1.608,1.606,1.604,1.604,1.601,1.601,1.604,1.604,1.604,1.604,1.606,1.606,1.608,1.611,1.613,1.615,1.615,1.615,1.618,1.62,1.618,1.615,1.615,1.613,1.611,1.608,1.608,1.606,1.606,1.606,1.606,1.608,1.608,1.606,1.608,1.608,1.606,1.604,1.604,1.604,1.601,1.601,1.597,1.597,1.595,1.595,1.592,1.592,1.592,1.592,1.592,1.592,1.592,1.592,1.592,1.592,1.592,1.592,1.592,1.592,1.595,1.595,1.595,1.597,1.597,1.601,1.604,1.604,1.606,1.608,1.613,1.615,1.618,1.623,1.625,1.625,1.63,1.635,1.639,1.647,1.649,1.654,1.659,1.666,1.672,1.677,1.679,1.679,1.677,1.677,1.674,1.674,1.674,1.672,1.672,1.674,1.677,1.679,1.682,1.684,1.687,1.689,1.689,1.692,1.695,1.695,1.697,1.697,1.7,1.702,1.702,1.705,1.705,1.708,1.708,1.71,1.71,1.713,1.715,1.718,1.721,1.724,1.724,1.726,1.732,1.734,1.737,1.737,1.74,1.742,1.742,1.745,1.748,1.748,1.748,1.748,1.751,1.751,1.751,1.754,1.754,1.754,1.754,1.756,1.756,1.756,1.754,1.751,1.748,1.745,1.745,1.745,1.745,1.748,1.751,1.751,1.754,1.756,1.756,1.756,1.754,1.754,1.751,1.751,1.748,1.748,1.748,1.748,1.748,1.754,1.754,1.756,1.759,1.759,1.762,1.762,1.765,1.765,1.762,1.762,1.759,1.759,1.759,1.759,1.756,1.756,1.754,1.754,1.754,1.751,1.751,1.751,1.748,1.748,1.745,1.745,1.742,1.742,1.74,1.737,1.737,1.737,1.737,1.734,0,0,0,0,0,0,0,0,0,0,0,0,0,0,0,0,0,0,0,0,0,0,0,0,0,0,0,0,0,0,0,0,0,0,0,0,0,0,0,0,0,0,0,0,0,0,0,0,0,3.821,3.808,3.808,3.821,3.821,3.821,3.821,3.821,3.808,3.795,3.795,3.782,3.769,3.769,3.744,3.731,3.719,3.719,3.719,3.706,3.706,3.706,3.694,3.694,3.694,3.682,3.682,3.67,3.67,3.657,3.645,3.633,3.622,3.61,3.586,3.575,3.541,3.496,3.431,3.368,3.308,3.24,3.185,3.139,3.096,3.061,3.036,3.011,3.003,2.987,2.979,2.971,2.955,2.955,2.947,2.947,2.955,2.955,2.963,2.971,2.979,2.987,2.987,2.987,2.995,2.987,2.987,2.987,2.987,2.979,2.971,2.963,2.947,2.94,2.924,2.916,2.901,2.886,2.878,2.864,2.856,2.849,2.842,2.827,2.82,2.813,2.799,2.784,2.771,2.757,2.743,2.73,2.716,2.703,2.683,2.67,2.658,2.645,2.632,2.626,2.62,2.614,2.608,2.601,2.601,2.595,2.589,2.583,2.577,2.571,2.559,2.553,2.542,2.53,2.513,2.496,2.479,2.468,2.457,2.441,2.43,2.425,2.414,2.409,2.409,2.409,2.414,2.414,2.414,2.42,2.42,2.42,2.425,2.425,2.42,2.414,2.409,2.409,2.404,2.399,2.394,2.388,2.383,2.378,2.373,2.368,2.363,2.363,2.358,2.353,2.348,2.348,2.343,2.338,2.338,2.338,2.333,2.333,2.333,2.333,2.328,2.328,2.328,2.323,2.318,2.318,2.314,2.309,2.304,2.299,2.294,2.294,2.29,2.285,2.28,2.271,2.271,2.266,2.262,2.257,2.252,2.248,2.248,2.243,2.239,2.234,2.234,2.23,2.23,2.225,2.221,2.216,2.208,2.203,2.199,2.19,2.186,2.182,2.177,2.173,2.173
1.713,1.715,1.715,1.718,1.718,1.721,1.721,1.724,1.724,1.724,1.724,1.726,1.726,1.726,1.729,1.729,1.732,1.732,1.732,1.732,1.734,1.734,1.737,1.737,1.737,1.737,1.734,1.734,1.734,1.734,1.732,1.732,1.732,1.732,1.732,1.734,1.734,1.729,1.729,1.726,1.726,1.726,1.724,1.721,1.715,1.71,1.705,1.702,1.695,1.689,1.684,1.677,1.669,1.664,1.657,1.652,1.647,1.639,1.635,1.63,1.625,1.62,1.618,1.613,1.613,1.611,1.608,1.606,1.606,1.606,1.606,1.606,1.608,1.608,1.611,1.611,1.613,1.613,1.615,1.618,1.618,1.618,1.618,1.618,1.618,1.615,1.613,1.613,1.611,1.611,1.608,1.608,1.608,1.608,1.611,1.611,1.611,1.611,1.611,1.611,1.611,1.608,1.608,1.606,1.604,1.604,1.601,1.599,1.597,1.597,1.595,1.592,1.592,1.592,1.592,1.595,1.595,1.595,1.592,1.592,1.592,1.592,1.592,1.592,1.595,1.595,1.595,1.597,1.599,1.601,1.604,1.604,1.606,1.611,1.613,1.618,1.62,1.623,1.625,1.627,1.63,1.635,1.642,1.649,1.654,1.659,1.664,1.672,1.677,1.679,1.682,1.684,1.682,1.682,1.682,1.679,1.679,1.677,1.677,1.679,1.682,1.687,1.689,1.692,1.695,1.695,1.7,1.7,1.702,1.702,1.705,1.708,1.708,1.71,1.71,1.713,1.713,1.713,1.715,1.715,1.718,1.721,1.721,1.724,1.726,1.729,1.732,1.734,1.737,1.742,1.745,1.742,1.745,1.748,1.751,1.754,1.756,1.756,1.754,1.754,1.759,1.762,1.762,1.762,1.762,1.765,1.765,1.765,1.765,1.762,1.762,1.759,1.756,1.754,1.754,1.756,1.756,1.756,1.759,1.762,1.762,1.762,1.765,1.762,1.762,1.762,1.756,1.756,1.756,1.756,1.754,1.754,1.754,1.756,1.759,1.759,1.762,1.765,1.765,1.765,1.765,1.765,1.765,1.762,1.762,1.762,1.759,1.756,1.756,1.754,1.754,1.754,1.751,1.751,1.748,1.748,1.745,1.742,1.742,1.74,1.74,1.737,1.734,1.734,1.734,1.737,1.734,0,0,0,0,0,0,0,0,0,0,0,0,0,0,0,0,0,0,0,0,0,0,0,0,0,0,0,0,0,0,0,0,0,0,0,0,0,0,0,0,0,0,0,0,0,0,0,0,3.821,3.821,3.821,3.821,3.821,3.821,3.821,3.821,3.821,3.808,3.808,3.795,3.795,3.782,3.782,3.769,3.744,3.731,3.731,3.719,3.719,3.719,3.706,3.706,3.706,3.694,3.694,3.682,3.682,3.67,3.657,3.657,3.645,3.633,3.622,3.61,3.586,3.575,3.552,3.507,3.463,3.41,3.368,3.318,3.259,3.222,3.185,3.148,3.131,3.104,3.087,3.07,3.061,3.045,3.036,3.028,3.028,3.02,3.02,3.02,3.02,3.028,3.028,3.036,3.036,3.036,3.036,3.028,3.028,3.02,3.02,3.011,3.003,2.995,2.987,2.971,2.963,2.947,2.94,2.924,2.909,2.901,2.894,2.878,2.871,2.856,2.849,2.834,2.82,2.806,2.791,2.777,2.764,2.75,2.736,2.716,2.71,2.69,2.677,2.664,2.651,2.645,2.632,2.626,2.62,2.614,2.608,2.601,2.595,2.595,2.589,2.577,2.571,2.559,2.548,2.536,2.519,2.502,2.49,2.474,2.457,2.446,2.436,2.43,2.425,2.42,2.42,2.42,2.425,2.42,2.425,2.425,2.43,2.43,2.436,2.43,2.43,2.425,2.42,2.414,2.409,2.404,2.394,2.388,2.388,2.378,2.373,2.368,2.363,2.358,2.358,2.353,2.348,2.343,2.338,2.338,2.333,2.333,2.333,2.328,2.328,2.328,2.328,2.328,2.323,2.318,2.318,2.318,2.314,2.309,2.304,2.304,2.299,2.294,2.29,2.285,2.28,2.276,2.271,2.266,2.262,2.257,2.257,2.252,2.248,2.243,2.239,2.239,2.234,2.23,2.23,2.225,2.221,2.216,2.208,2.203,2.199,2.194,2.186,2.186,2.182,2.177,2.177
1.713,1.715,1.715,1.718,1.718,1.721,1.721,1.721,1.724,1.724,1.724,1.724,1.726,1.726,1.726,1.729,1.729,1.729,1.732,1.732,1.732,1.734,1.737,1.737,1.737,1.734,1.734,1.732,1.734,1.732,1.732,1.732,1.734,1.732,1.734,1.734,1.734,1.734,1.732,1.732,1.732,1.729,1.726,1.724,1.721,1.715,1.713,1.71,1.702,1.697,1.689,1.684,1.677,1.672,1.664,1.659,1.652,1.644,1.639,1.635,1.63,1.625,1.62,1.618,1.615,1.613,1.611,1.611,1.608,1.608,1.611,1.611,1.613,1.613,1.613,1.613,1.615,1.615,1.618,1.618,1.618,1.618,1.618,1.618,1.618,1.618,1.615,1.613,1.611,1.611,1.608,1.611,1.611,1.611,1.613,1.615,1.615,1.615,1.615,1.613,1.613,1.611,1.611,1.608,1.606,1.604,1.601,1.599,1.599,1.597,1.595,1.595,1.592,1.592,1.592,1.595,1.592,1.592,1.592,1.59,1.592,1.592,1.592,1.595,1.595,1.595,1.595,1.597,1.599,1.601,1.604,1.606,1.606,1.608,1.613,1.618,1.62,1.623,1.625,1.627,1.632,1.637,1.647,1.654,1.657,1.661,1.669,1.674,1.682,1.684,1.687,1.684,1.684,1.684,1.684,1.682,1.682,1.682,1.682,1.684,1.687,1.692,1.695,1.7,1.702,1.705,1.708,1.71,1.71,1.713,1.713,1.715,1.715,1.718,1.721,1.721,1.721,1.721,1.724,1.724,1.724,1.726,1.729,1.729,1.732,1.734,1.737,1.74,1.742,1.748,1.751,1.751,1.751,1.754,1.756,1.759,1.759,1.762,1.762,1.762,1.765,1.767,1.767,1.767,1.77,1.773,1.773,1.773,1.77,1.77,1.767,1.767,1.765,1.762,1.762,1.765,1.762,1.765,1.765,1.767,1.767,1.767,1.77,1.767,1.767,1.765,1.762,1.759,1.759,1.759,1.759,1.759,1.759,1.762,1.762,1.762,1.765,1.765,1.765,1.765,1.765,1.765,1.765,1.762,1.762,1.759,1.756,1.756,1.756,1.754,1.751,1.751,1.748,1.748,1.745,1.745,1.742,1.742,1.742,1.74,1.737,1.734,1.734,1.734,1.734,1.734,1.737,0,0,0,0,0,0,0,0,0,0,0,0,0,0,0,0,0,0,0,0,0,0,0,0,0,0,0,0,0,0,0,0,0,0,0,0,0,0,0,0,0,0,0,0,0,0,3.835,3.835,3.835,3.835,3.835,3.821,3.821,3.821,3.821,3.821,3.821,3.821,3.808,3.795,3.795,3.795,3.782,3.769,3.757,3.744,3.731,3.731,3.731,3.719,3.719,3.706,3.706,3.706,3.694,3.682,3.682,3.67,3.657,3.657,3.645,3.633,3.622,3.61,3.586,3.575,3.541,3.518,3.485,3.452,3.42,3.379,3.348,3.298,3.269,3.24,3.222,3.194,3.185,3.157,3.148,3.131,3.122,3.113,3.096,3.096,3.087,3.078,3.078,3.078,3.078,3.078,3.07,3.07,3.07,3.061,3.061,3.061,3.053,3.045,3.036,3.028,3.02,3.003,2.995,2.979,2.971,2.963,2.947,2.94,2.924,2.909,2.901,2.886,2.871,2.856,2.842,2.827,2.813,2.799,2.784,2.771,2.757,2.736,2.723,2.71,2.696,2.683,2.67,2.658,2.651,2.645,2.632,2.626,2.62,2.614,2.608,2.601,2.589,2.583,2.577,2.571,2.559,2.542,2.524,2.513,2.496,2.479,2.468,2.457,2.446,2.441,2.436,2.43,2.43,2.43,2.436,2.436,2.441,2.441,2.441,2.446,2.446,2.441,2.441,2.436,2.43,2.42,2.414,2.409,2.399,2.394,2.388,2.378,2.373,2.368,2.363,2.358,2.353,2.348,2.343,2.338,2.333,2.333,2.328,2.328,2.323,2.323,2.323,2.323,2.323,2.318,2.318,2.318,2.314,2.314,2.314,2.309,2.304,2.304,2.299,2.294,2.29,2.29,2.28,2.276,2.271,2.266,2.266,2.262,2.257,2.252,2.248,2.248,2.243,2.239,2.234,2.234,2.23,2.225,2.221,2.216,2.208,2.203,2.199,2.194,2.19,2.186,2.186,2.182,2.182
1.713,1.715,1.715,1.718,1.718,1.721,1.721,1.721,1.724,1.724,1.724,1.724,1.724,1.726,1.726,1.726,1.729,1.729,1.729,1.732,1.732,1.734,1.734,1.734,1.734,1.734,1.732,1.732,1.734,1.734,1.732,1.734,1.734,1.734,1.737,1.74,1.74,1.737,1.734,1.734,1.734,1.734,1.732,1.729,1.726,1.724,1.718,1.715,1.71,1.705,1.7,1.692,1.684,1.679,1.672,1.666,1.659,1.652,1.644,1.639,1.635,1.63,1.625,1.623,1.618,1.615,1.615,1.613,1.613,1.613,1.613,1.613,1.615,1.615,1.618,1.618,1.62,1.62,1.62,1.623,1.623,1.623,1.623,1.62,1.62,1.618,1.615,1.613,1.613,1.611,1.611,1.613,1.613,1.615,1.615,1.618,1.618,1.618,1.618,1.618,1.615,1.613,1.611,1.611,1.608,1.606,1.604,1.601,1.599,1.597,1.597,1.595,1.595,1.595,1.592,1.592,1.592,1.592,1.592,1.592,1.592,1.592,1.595,1.595,1.595,1.595,1.595,1.597,1.599,1.601,1.604,1.606,1.606,1.611,1.613,1.618,1.62,1.623,1.625,1.627,1.632,1.639,1.649,1.657,1.661,1.664,1.672,1.677,1.684,1.687,1.684,1.687,1.684,1.682,1.682,1.682,1.682,1.684,1.684,1.687,1.692,1.697,1.7,1.705,1.71,1.713,1.715,1.718,1.718,1.721,1.721,1.724,1.724,1.726,1.726,1.726,1.726,1.729,1.729,1.729,1.729,1.732,1.734,1.734,1.737,1.74,1.745,1.745,1.751,1.754,1.756,1.756,1.759,1.762,1.762,1.765,1.765,1.765,1.765,1.767,1.77,1.773,1.773,1.773,1.776,1.779,1.779,1.779,1.779,1.776,1.776,1.773,1.77,1.77,1.767,1.77,1.77,1.77,1.773,1.773,1.773,1.776,1.773,1.773,1.77,1.767,1.767,1.765,1.765,1.765,1.765,1.762,1.762,1.765,1.765,1.765,1.767,1.767,1.765,1.765,1.765,1.765,1.765,1.762,1.759,1.759,1.756,1.754,1.754,1.751,1.748,1.748,1.745,1.745,1.742,1.74,1.74,1.74,1.74,1.737,1.737,1.734,1.734,1.732,1.734,1.734,1.734,1.734,0,0,0,0,0,0,0,0,0,0,0,0,0,0,0,0,0,0,0,0,0,0,0,0,0,0,0,0,0,0,0,0,0,0,0,0,0,0,0,0,0,0,0,3.861,3.848,3.848,3.848,3.848,3.835,3.835,3.821,3.821,3.821,3.821,3.821,3.835,3.821,3.808,3.808,3.795,3.795,3.782,3.782,3.757,3.744,3.744,3.744,3.731,3.731,3.731,3.719,3.719,3.706,3.694,3.682,3.682,3.682,3.67,3.657,3.645,3.633,3.622,3.61,3.598,3.575,3.552,3.529,3.496,3.485,3.452,3.42,3.389,3.348,3.328,3.308,3.288,3.259,3.24,3.212,3.203,3.185,3.175,3.166,3.148,3.139,3.131,3.131,3.122,3.122,3.122,3.113,3.113,3.104,3.104,3.096,3.096,3.087,3.078,3.07,3.061,3.053,3.045,3.028,3.02,3.011,2.995,2.979,2.971,2.955,2.947,2.932,2.924,2.909,2.894,2.878,2.864,2.849,2.834,2.813,2.799,2.784,2.771,2.75,2.743,2.723,2.71,2.703,2.69,2.677,2.664,2.651,2.645,2.632,2.626,2.62,2.614,2.608,2.601,2.589,2.583,2.571,2.559,2.548,2.536,2.519,2.502,2.49,2.479,2.468,2.457,2.452,2.446,2.441,2.441,2.446,2.446,2.452,2.452,2.452,2.457,2.457,2.457,2.457,2.452,2.446,2.441,2.43,2.425,2.414,2.409,2.399,2.394,2.383,2.373,2.368,2.363,2.358,2.353,2.343,2.338,2.333,2.333,2.328,2.323,2.323,2.323,2.318,2.318,2.318,2.318,2.318,2.318,2.314,2.309,2.309,2.309,2.309,2.304,2.304,2.299,2.294,2.294,2.29,2.285,2.28,2.276,2.271,2.266,2.262,2.257,2.252,2.252,2.248,2.243,2.239,2.239,2.234,2.23,2.225,2.225,2.216,2.208,2.203,2.203,2.194,2.194,2.19,2.186,2.186,2.186
1.715,1.715,1.715,1.718,1.718,1.721,1.721,1.721,1.724,1.724,1.724,1.724,1.724,1.724,1.726,1.726,1.726,1.729,1.729,1.729,1.732,1.732,1.732,1.732,1.732,1.732,1.732,1.732,1.732,1.734,1.734,1.734,1.737,1.737,1.74,1.74,1.74,1.74,1.74,1.74,1.74,1.737,1.737,1.734,1.732,1.729,1.726,1.724,1.718,1.713,1.708,1.697,1.692,1.687,1.679,1.674,1.666,1.657,1.652,1.644,1.639,1.635,1.63,1.627,1.623,1.62,1.618,1.618,1.615,1.615,1.615,1.615,1.618,1.62,1.62,1.623,1.623,1.625,1.625,1.627,1.627,1.627,1.625,1.625,1.623,1.623,1.62,1.618,1.615,1.613,1.613,1.615,1.618,1.618,1.62,1.62,1.62,1.623,1.623,1.62,1.618,1.615,1.615,1.613,1.611,1.611,1.608,1.604,1.601,1.601,1.599,1.597,1.597,1.595,1.595,1.595,1.595,1.595,1.595,1.592,1.592,1.592,1.595,1.595,1.597,1.595,1.597,1.597,1.599,1.604,1.604,1.606,1.608,1.613,1.615,1.62,1.623,1.625,1.627,1.63,1.637,1.644,1.652,1.659,1.664,1.666,1.674,1.679,1.682,1.684,1.684,1.684,1.682,1.682,1.682,1.682,1.679,1.682,1.684,1.689,1.697,1.7,1.705,1.713,1.713,1.718,1.724,1.726,1.726,1.729,1.729,1.732,1.732,1.732,1.734,1.732,1.732,1.734,1.734,1.734,1.734,1.737,1.737,1.74,1.742,1.745,1.751,1.754,1.756,1.759,1.762,1.762,1.765,1.765,1.767,1.767,1.767,1.77,1.77,1.77,1.773,1.779,1.779,1.782,1.782,1.782,1.785,1.785,1.785,1.785,1.782,1.779,1.779,1.776,1.776,1.776,1.779,1.779,1.779,1.779,1.782,1.779,1.779,1.779,1.776,1.773,1.77,1.77,1.767,1.767,1.767,1.765,1.765,1.767,1.767,1.767,1.767,1.767,1.767,1.765,1.765,1.765,1.762,1.759,1.759,1.756,1.754,1.754,1.751,1.748,1.745,1.742,1.742,1.74,1.74,1.737,1.737,1.737,1.734,1.734,1.734,1.734,1.732,1.734,1.734,1.734,0,0,0,0,0,0,0,0,0,0,0,0,0,0,0,0,0,0,0,0,0,0,0,0,0,0,0,0,0,0,0,0,0,0,0,0,0,0,0,0,0,0,0,3.875,3.875,3.875,3.861,3.861,3.848,3.848,3.848,3.835,3.835,3.821,3.821,3.821,3.835,3.835,3.821,3.808,3.808,3.808,3.795,3.795,3.782,3.769,3.757,3.757,3.757,3.744,3.744,3.731,3.731,3.719,3.706,3.706,3.694,3.694,3.682,3.67,3.657,3.645,3.633,3.622,3.61,3.598,3.575,3.552,3.529,3.507,3.485,3.463,3.431,3.399,3.379,3.358,3.338,3.318,3.298,3.279,3.259,3.25,3.231,3.212,3.203,3.194,3.185,3.175,3.166,3.166,3.157,3.157,3.148,3.148,3.139,3.131,3.122,3.113,3.113,3.104,3.087,3.078,3.07,3.061,3.053,3.036,3.028,3.011,3.003,2.995,2.979,2.971,2.955,2.94,2.932,2.916,2.901,2.878,2.864,2.849,2.827,2.813,2.799,2.784,2.771,2.75,2.736,2.73,2.716,2.703,2.69,2.683,2.67,2.658,2.645,2.639,2.632,2.62,2.614,2.601,2.595,2.589,2.577,2.565,2.553,2.542,2.53,2.513,2.502,2.49,2.479,2.474,2.468,2.463,2.457,2.463,2.463,2.463,2.468,2.468,2.468,2.474,2.474,2.474,2.468,2.468,2.463,2.452,2.441,2.43,2.425,2.414,2.404,2.394,2.383,2.378,2.373,2.363,2.358,2.348,2.343,2.338,2.333,2.328,2.323,2.323,2.318,2.318,2.314,2.314,2.314,2.314,2.314,2.309,2.309,2.309,2.309,2.309,2.309,2.304,2.304,2.299,2.299,2.294,2.29,2.285,2.28,2.276,2.271,2.266,2.262,2.257,2.257,2.252,2.248,2.243,2.243,2.239,2.234,2.234,2.23,2.225,2.216,2.212,2.208,2.203,2.199,2.194,2.19,2.19,2.186,2.186
1.715,1.715,1.718,1.718,1.721,1.721,1.724,1.724,1.724,1.724,1.724,1.724,1.724,1.724,1.724,1.726,1.726,1.726,1.729,1.729,1.732,1.732,1.732,1.732,1.732,1.732,1.734,1.732,1.734,1.734,1.734,1.734,1.737,1.737,1.74,1.74,1.742,1.742,1.742,1.742,1.742,1.742,1.74,1.74,1.737,1.734,1.734,1.729,1.726,1.718,1.713,1.705,1.7,1.692,1.684,1.679,1.669,1.664,1.657,1.649,1.642,1.639,1.635,1.63,1.625,1.623,1.62,1.62,1.618,1.618,1.618,1.62,1.62,1.623,1.623,1.625,1.627,1.627,1.63,1.632,1.632,1.632,1.63,1.63,1.627,1.625,1.623,1.62,1.618,1.615,1.615,1.618,1.618,1.62,1.62,1.623,1.625,1.625,1.625,1.625,1.623,1.62,1.618,1.615,1.613,1.613,1.608,1.606,1.606,1.606,1.604,1.601,1.599,1.597,1.595,1.595,1.595,1.595,1.595,1.595,1.595,1.595,1.597,1.597,1.597,1.597,1.595,1.599,1.601,1.604,1.606,1.608,1.611,1.613,1.615,1.623,1.623,1.627,1.627,1.635,1.639,1.649,1.659,1.664,1.666,1.672,1.677,1.682,1.684,1.684,1.682,1.682,1.679,1.677,1.677,1.679,1.679,1.684,1.687,1.692,1.702,1.708,1.713,1.721,1.724,1.726,1.732,1.734,1.74,1.737,1.74,1.74,1.74,1.74,1.74,1.737,1.74,1.74,1.737,1.737,1.74,1.74,1.742,1.745,1.748,1.751,1.754,1.756,1.759,1.762,1.767,1.767,1.77,1.77,1.77,1.77,1.77,1.77,1.77,1.773,1.776,1.779,1.782,1.782,1.785,1.787,1.787,1.79,1.79,1.79,1.787,1.785,1.785,1.785,1.782,1.782,1.785,1.785,1.787,1.787,1.787,1.787,1.785,1.782,1.779,1.779,1.776,1.773,1.773,1.77,1.77,1.77,1.77,1.77,1.77,1.77,1.77,1.77,1.77,1.767,1.765,1.765,1.762,1.759,1.759,1.756,1.754,1.751,1.748,1.745,1.745,1.74,1.74,1.737,1.737,1.734,1.734,1.734,1.734,1.732,0,0,0,0,0,0,0,0,0,0,0,0,0,0,0,0,0,0,0,0,0,0,0,0,0,0,0,0,0,0,0,0,0,0,0,0,0,0,0,0,0,0,0,0,0,0,3.902,3.902,3.888,3.888,3.888,3.888,3.875,3.861,3.861,3.861,3.861,3.848,3.835,3.835,3.835,3.835,3.835,3.835,3.821,3.821,3.808,3.808,3.808,3.808,3.795,3.782,3.769,3.769,3.757,3.757,3.744,3.744,3.731,3.731,3.719,3.706,3.706,3.694,3.682,3.67,3.657,3.645,3.633,3.622,3.61,3.598,3.586,3.563,3.541,3.518,3.496,3.474,3.452,3.431,3.399,3.379,3.358,3.348,3.328,3.318,3.298,3.279,3.269,3.25,3.24,3.231,3.222,3.212,3.203,3.194,3.194,3.185,3.175,3.175,3.166,3.148,3.148,3.139,3.131,3.113,3.104,3.096,3.087,3.078,3.061,3.053,3.036,3.028,3.02,3.011,2.995,2.987,2.971,2.955,2.94,2.932,2.916,2.901,2.878,2.856,2.842,2.82,2.806,2.791,2.777,2.764,2.75,2.736,2.73,2.716,2.71,2.696,2.683,2.67,2.664,2.651,2.645,2.632,2.626,2.614,2.608,2.595,2.589,2.577,2.565,2.553,2.542,2.524,2.513,2.502,2.496,2.485,2.479,2.474,2.474,2.474,2.479,2.479,2.485,2.485,2.485,2.485,2.49,2.49,2.485,2.479,2.474,2.463,2.452,2.441,2.43,2.42,2.409,2.399,2.388,2.378,2.373,2.363,2.358,2.348,2.343,2.338,2.328,2.323,2.318,2.318,2.314,2.314,2.314,2.309,2.309,2.309,2.309,2.309,2.309,2.309,2.309,2.309,2.309,2.304,2.304,2.304,2.299,2.294,2.294,2.29,2.285,2.28,2.276,2.271,2.266,2.262,2.257,2.252,2.252,2.248,2.243,2.239,2.239,2.234,2.23,2.225,2.221,2.212,2.208,2.203,2.199,2.199,2.194,2.19,2.19,2.19
1.718,1.718,1.721,1.721,1.721,1.724,1.724,1.724,1.724,1.724,1.724,1.724,1.724,1.724,1.724,1.724,1.726,1.726,1.726,1.729,1.732,1.732,1.732,1.732,1.732,1.732,1.734,1.734,1.732,1.732,1.732,1.734,1.734,1.737,1.74,1.74,1.742,1.742,1.745,1.745,1.745,1.745,1.745,1.742,1.742,1.742,1.74,1.737,1.732,1.726,1.718,1.713,1.705,1.697,1.689,1.682,1.674,1.666,1.659,1.652,1.647,1.642,1.637,1.635,1.63,1.627,1.625,1.623,1.623,1.623,1.623,1.623,1.625,1.625,1.627,1.63,1.632,1.632,1.635,1.637,1.637,1.635,1.635,1.632,1.63,1.627,1.625,1.625,1.62,1.62,1.62,1.62,1.623,1.623,1.625,1.627,1.627,1.627,1.627,1.625,1.623,1.623,1.618,1.615,1.615,1.613,1.611,1.608,1.606,1.606,1.606,1.601,1.599,1.599,0,0,0,1.597,1.595,1.592,1.595,1.597,1.597,1.599,1.597,1.599,1.599,1.601,1.604,1.606,1.608,1.611,1.613,1.615,1.62,1.625,1.627,1.63,1.63,1.635,1.644,1.654,1.661,1.669,1.672,1.677,1.682,1.684,1.684,1.682,1.679,1.677,1.674,1.674,1.674,1.677,1.677,1.682,1.684,1.695,1.705,1.71,1.721,1.726,1.732,1.734,1.742,1.745,1.748,1.748,1.748,1.748,1.748,1.745,1.745,1.745,1.745,1.742,1.742,1.742,1.742,1.742,1.745,1.745,1.748,1.751,1.756,1.759,1.762,1.765,1.77,1.77,1.77,1.773,1.773,1.77,1.77,1.77,1.77,1.773,1.776,1.779,1.785,1.785,1.787,1.79,1.793,1.793,1.796,1.793,1.79,1.787,1.79,1.787,1.787,1.787,1.793,1.793,1.793,1.793,1.79,1.79,1.787,1.787,1.785,1.782,1.779,1.776,1.776,1.773,1.773,1.773,1.773,1.773,1.773,1.773,1.77,1.77,1.77,1.767,1.767,1.762,1.762,1.759,1.756,1.754,1.751,1.748,1.745,1.742,1.74,1.74,1.737,1.737,1.732,1.732,1.734,1.734,0,0,0,0,0,0,0,0,0,0,0,0,0,0,0,0,0,0,0,0,0,0,0,0,0,0,0,0,0,0,0,0,0,0,0,0,0,0,0,0,0,0,0,0,0,0,0,3.916,3.902,3.902,3.902,3.902,3.902,3.888,3.888,3.888,3.888,3.875,3.861,3.861,3.848,3.848,3.848,3.835,3.835,3.835,3.835,3.835,3.821,3.821,3.821,3.808,3.808,3.795,3.782,3.782,3.769,3.769,3.757,3.744,3.744,3.731,3.719,3.719,3.706,3.706,3.694,3.682,3.67,3.657,3.645,3.633,3.622,3.61,3.586,3.563,3.552,3.529,3.507,3.485,3.463,3.442,3.42,3.399,3.379,3.368,3.348,3.338,3.318,3.308,3.288,3.279,3.269,3.259,3.24,3.231,3.231,3.222,3.222,3.212,3.203,3.194,3.185,3.175,3.166,3.157,3.148,3.131,3.122,3.113,3.096,3.087,3.078,3.061,3.053,3.036,3.028,3.02,3.011,2.995,2.987,2.971,2.955,2.94,2.932,2.916,2.894,2.871,2.856,2.834,2.82,2.806,2.784,2.771,2.764,2.75,2.743,2.73,2.723,2.71,2.696,2.69,2.677,2.664,2.658,2.645,2.639,2.626,2.614,2.608,2.595,2.589,2.577,2.565,2.553,2.542,2.524,2.519,2.507,2.502,2.496,2.496,2.49,2.49,2.496,2.496,2.496,2.502,2.502,2.502,2.502,2.502,2.496,2.49,2.485,2.474,2.463,2.452,2.441,2.425,2.414,2.404,2.388,2.383,2.373,2.363,2.358,2.353,2.343,2.338,2.328,2.323,2.318,2.314,2.314,2.314,2.309,2.309,2.309,2.309,2.309,2.309,2.309,2.309,2.309,2.309,2.309,2.304,2.304,2.304,2.299,2.299,2.294,2.29,2.285,2.28,2.276,2.271,2.266,2.262,2.257,2.252,2.252,2.248,2.243,2.239,2.239,2.234,2.23,2.225,2.221,2.212,2.208,2.203,2.203,2.199,2.199,2.194,2.19,2.19
1.718,1.718,1.721,1.724,1.724,1.724,1.724,1.724,1.724,1.724,1.724,1.724,1.721,1.724,1.724,1.724,1.724,1.726,1.726,1.729,1.729,1.732,1.732,1.732,1.732,1.732,1.734,1.734,1.732,1.732,1.732,1.734,1.734,1.737,1.74,1.74,1.742,1.742,1.745,1.748,1.748,1.748,1.748,1.745,1.745,1.745,1.745,1.742,1.737,1.732,1.726,1.718,1.71,1.705,1.695,1.687,1.679,1.672,1.664,1.657,1.652,1.647,1.642,1.637,1.632,1.63,1.627,1.625,1.625,1.623,1.625,1.625,1.627,1.63,1.632,1.635,1.635,1.637,1.639,1.642,1.642,1.639,1.639,1.637,1.635,1.632,1.63,1.627,1.627,1.625,1.625,1.625,1.627,1.627,1.63,1.632,1.632,1.632,1.63,1.63,1.627,1.623,1.623,1.618,1.615,1.615,1.613,1.611,1.608,1.608,1.606,1.604,0,0,0,0,0,0,0,0,0,0,0,1.599,1.601,1.601,1.601,1.604,1.606,1.608,1.611,1.613,1.615,1.618,1.623,1.627,1.63,1.632,1.635,1.642,1.652,1.661,1.672,1.677,1.679,1.682,1.684,1.684,1.684,1.679,1.677,1.672,1.672,1.669,1.669,1.672,1.677,1.679,1.687,1.695,1.702,1.713,1.724,1.732,1.737,1.745,1.751,1.754,1.756,1.756,1.754,1.754,1.754,1.751,1.751,1.748,1.748,1.748,1.745,1.745,1.745,1.745,1.748,1.748,1.751,1.754,1.756,1.759,1.762,1.767,1.77,1.773,1.773,1.773,1.773,1.773,1.77,1.77,1.77,1.773,1.773,1.779,1.782,1.787,1.79,1.793,1.796,1.799,1.796,1.796,1.796,1.793,1.793,1.793,1.793,1.793,1.796,1.799,1.799,1.799,1.796,1.793,1.793,1.79,1.787,1.782,1.779,1.779,1.776,1.776,1.776,1.776,1.776,1.776,1.776,1.773,1.773,1.773,1.77,1.767,1.765,1.765,1.762,1.759,1.756,1.754,1.748,1.748,1.745,1.742,1.74,1.74,1.737,1.732,1.732,1.732,0,0,0,0,0,0,3.916,3.916,3.916,3.93,3.93,0,0,0,0,0,0,0,0,0,0,0,0,0,0,0,0,0,0,0,0,0,0,0,0,0,0,0,0,0,0,0,0,0,0,3.93,3.916,3.916,3.916,3.916,3.916,3.902,3.902,3.902,3.902,3.902,3.902,3.888,3.902,3.888,3.875,3.875,3.875,3.861,3.848,3.848,3.848,3.848,3.848,3.848,3.835,3.835,3.835,3.821,3.808,3.808,3.795,3.795,3.782,3.782,3.769,3.757,3.744,3.744,3.731,3.719,3.719,3.706,3.694,3.682,3.67,3.657,3.645,3.633,3.622,3.61,3.586,3.575,3.552,3.529,3.507,3.496,3.474,3.452,3.431,3.41,3.399,3.379,3.368,3.358,3.338,3.328,3.308,3.298,3.288,3.279,3.269,3.259,3.25,3.25,3.24,3.231,3.231,3.222,3.203,3.194,3.185,3.175,3.157,3.148,3.131,3.122,3.113,3.096,3.087,3.07,3.061,3.053,3.036,3.028,3.02,3.003,2.995,2.979,2.971,2.955,2.94,2.932,2.909,2.894,2.871,2.849,2.827,2.813,2.799,2.784,2.771,2.757,2.75,2.743,2.736,2.723,2.716,2.703,2.69,2.683,2.67,2.658,2.651,2.639,2.626,2.62,2.608,2.601,2.589,2.577,2.565,2.553,2.542,2.536,2.524,2.519,2.513,2.507,2.507,2.507,2.513,2.513,2.513,2.513,2.513,2.513,2.513,2.513,2.507,2.502,2.496,2.485,2.468,2.457,2.446,2.43,2.414,2.404,2.394,2.383,2.373,2.363,2.358,2.353,2.343,2.338,2.328,2.323,2.318,2.318,2.314,2.314,2.309,2.309,2.309,2.309,2.309,2.309,2.309,2.309,2.309,2.309,2.309,2.309,2.309,2.304,2.304,2.304,2.299,2.294,2.29,2.285,2.28,2.276,2.266,2.262,2.257,2.252,2.252,2.248,2.243,2.239,2.239,2.234,2.23,2.225,2.221,2.212,2.208,2.203,2.203,2.199,2.199,2.194,2.194,2.194
1.718,1.721,1.721,1.724,1.724,1.724,1.724,1.724,1.724,1.724,1.724,1.724,1.721,1.724,1.724,1.724,1.724,1.724,1.726,1.729,1.729,1.732,1.732,1.732,1.732,1.732,1.732,1.732,1.732,1.732,1.732,1.734,1.737,1.737,1.74,1.74,1.742,1.745,1.748,1.751,1.751,1.751,1.751,1.751,1.748,1.751,1.748,1.745,1.742,1.737,1.732,1.724,1.715,1.708,1.7,1.692,1.684,1.677,1.669,1.661,1.657,1.652,1.647,1.642,1.637,1.635,1.632,1.63,1.627,1.627,1.627,1.63,1.632,1.635,1.637,1.637,1.642,1.644,1.644,1.647,1.647,1.647,1.644,1.642,1.639,1.637,1.635,1.632,1.632,1.63,1.63,1.63,1.632,1.632,1.637,1.637,1.639,1.637,1.637,1.635,1.632,1.627,1.627,1.62,1.618,1.615,1.613,1.611,1.611,1.611,0,0,0,0,0,0,0,0,0,0,0,0,0,1.601,0,1.606,0,1.606,1.611,1.613,1.615,1.615,1.62,1.62,1.625,1.627,1.632,1.637,1.642,1.652,1.661,1.669,1.677,1.684,1.687,1.689,1.687,1.687,1.684,1.679,1.674,1.672,1.669,1.666,1.666,1.669,1.674,1.679,1.687,1.695,1.705,1.713,1.724,1.737,1.74,1.748,1.754,1.759,1.765,1.762,1.762,1.759,1.759,1.756,1.756,1.754,1.751,1.751,1.751,1.748,1.748,1.748,1.748,1.751,1.754,1.754,1.759,1.759,1.762,1.767,1.77,1.77,1.77,1.773,1.773,1.77,1.767,1.767,1.77,1.77,1.776,1.779,1.785,1.787,1.79,1.796,1.799,1.802,1.802,1.802,1.799,1.799,1.796,1.799,1.799,1.799,1.802,1.802,1.802,1.802,1.799,1.796,1.796,1.793,1.787,1.785,1.782,1.779,1.779,1.779,1.776,1.776,1.776,1.776,1.776,1.776,1.776,1.773,1.77,1.767,1.767,1.765,1.762,1.756,1.754,1.751,1.748,1.745,1.745,1.74,1.737,1.734,1.734,1.732,0,0,0,0,0,0,3.902,3.916,3.916,3.93,3.93,3.93,3.944,3.958,0,0,0,0,0,0,0,0,0,0,0,0,0,0,0,0,0,0,0,0,0,0,0,0,0,0,0,0,0,0,3.944,3.944,3.93,3.93,3.93,3.916,3.916,3.916,3.916,3.916,3.916,3.916,3.916,3.916,3.916,3.902,3.902,3.902,3.902,3.888,3.875,3.875,3.861,3.861,3.861,3.861,3.848,3.848,3.848,3.848,3.848,3.835,3.835,3.808,3.808,3.795,3.795,3.782,3.769,3.769,3.757,3.744,3.731,3.731,3.719,3.706,3.694,3.682,3.67,3.657,3.645,3.633,3.622,3.61,3.598,3.575,3.563,3.541,3.518,3.496,3.485,3.463,3.442,3.42,3.41,3.389,3.379,3.368,3.358,3.338,3.328,3.318,3.308,3.298,3.288,3.279,3.279,3.269,3.259,3.25,3.24,3.231,3.222,3.212,3.203,3.185,3.175,3.157,3.148,3.131,3.122,3.104,3.096,3.087,3.07,3.061,3.045,3.036,3.028,3.011,3.003,2.995,2.979,2.971,2.955,2.94,2.924,2.909,2.886,2.864,2.842,2.827,2.806,2.791,2.777,2.771,2.757,2.75,2.743,2.736,2.73,2.716,2.71,2.696,2.683,2.67,2.664,2.651,2.645,2.632,2.626,2.614,2.601,2.589,2.577,2.565,2.553,2.548,2.542,2.536,2.53,2.524,2.524,2.524,2.524,2.524,2.524,2.524,2.524,2.524,2.524,2.519,2.513,2.507,2.496,2.485,2.474,2.463,2.452,2.436,2.42,2.409,2.394,2.388,2.378,2.368,2.363,2.353,2.348,2.338,2.333,2.328,2.323,2.318,2.314,2.314,2.314,2.314,2.309,2.309,2.309,2.309,2.309,2.309,2.309,2.309,2.309,2.309,2.309,2.309,2.309,2.309,2.304,2.299,2.294,2.29,2.285,2.28,2.271,2.266,2.262,2.257,2.252,2.248,2.243,2.239,2.239,2.234,2.23,2.225,2.221,2.216,2.212,2.208,2.203,2.203,2.199,2.194,2.194,2.194
1.721,1.721,1.721,1.724,1.724,1.726,1.726,1.726,1.726,1.724,1.724,1.724,1.724,1.724,1.724,1.724,1.724,1.724,1.726,1.729,1.729,1.732,1.732,1.732,1.732,1.732,1.732,1.732,1.732,1.732,1.732,1.734,1.737,1.74,1.74,1.742,1.745,1.745,1.751,1.751,1.754,1.754,1.754,1.754,1.754,1.754,1.754,1.751,1.748,1.742,1.737,1.732,1.724,1.715,1.708,1.697,1.689,1.682,1.674,1.669,1.661,1.657,1.652,1.647,1.642,1.639,1.637,1.635,1.632,1.632,1.632,1.632,1.637,1.639,1.642,1.642,1.647,1.647,1.649,1.652,1.652,1.652,1.649,1.647,1.644,1.642,1.639,1.637,1.637,1.637,1.635,1.637,1.637,1.639,1.642,1.644,1.642,1.642,1.639,1.637,1.635,1.63,1.63,1.623,1.618,1.615,1.615,1.613,1.613,1.613,0,0,0,0,0,0,0,0,0,0,0,0,0,0,0,0,0,0,1.613,1.615,1.618,1.618,1.62,1.623,1.625,1.63,1.635,1.639,1.647,1.657,1.666,1.677,1.684,1.692,1.692,1.695,1.695,1.692,1.684,1.677,1.669,1.666,1.664,1.661,1.664,1.666,1.672,1.679,1.687,1.695,1.705,1.715,1.726,1.737,1.745,1.754,1.762,1.765,1.77,1.767,1.767,1.765,1.762,1.762,1.759,1.756,1.756,1.754,1.751,1.751,1.751,1.751,1.754,1.754,1.756,1.756,1.759,1.762,1.765,1.767,1.77,1.77,1.773,1.773,1.773,1.77,1.767,1.77,1.77,1.77,1.776,1.779,1.785,1.79,1.793,1.802,1.805,1.805,1.808,1.808,1.808,1.805,1.808,1.808,1.805,1.808,1.811,1.808,1.808,1.805,1.802,1.796,1.796,1.793,1.79,1.785,1.782,1.779,1.779,1.779,1.779,1.779,1.776,1.776,1.776,1.779,1.776,1.773,1.773,1.77,1.767,1.762,1.759,1.756,1.754,1.751,1.748,1.745,1.742,1.74,0,1.734,1.732,0,0,0,0,0,0,3.916,3.916,3.93,3.93,3.93,3.944,3.944,3.944,3.958,3.972,0,3.972,0,0,0,0,0,0,0,0,0,0,0,0,0,0,0,0,0,0,0,0,0,0,0,0,0,0,3.944,3.944,3.944,3.93,3.93,3.93,3.93,3.93,3.93,3.916,3.916,3.916,3.93,3.93,3.93,3.93,3.93,3.93,3.916,3.916,3.902,3.888,3.888,3.888,3.875,3.875,3.875,3.875,3.875,3.861,3.861,3.848,3.848,3.835,3.821,3.808,3.808,3.795,3.795,3.782,3.769,3.757,3.757,3.744,3.731,3.731,3.719,3.706,3.694,3.682,3.67,3.645,3.633,3.622,3.61,3.598,3.586,3.563,3.541,3.529,3.507,3.485,3.474,3.452,3.431,3.42,3.399,3.389,3.379,3.358,3.348,3.338,3.328,3.318,3.308,3.308,3.298,3.288,3.279,3.269,3.269,3.259,3.25,3.24,3.222,3.212,3.203,3.185,3.175,3.157,3.148,3.131,3.113,3.104,3.087,3.078,3.061,3.045,3.036,3.028,3.02,3.011,2.995,2.987,2.979,2.971,2.955,2.94,2.924,2.901,2.878,2.856,2.842,2.82,2.806,2.791,2.777,2.771,2.764,2.757,2.743,2.736,2.73,2.723,2.71,2.703,2.69,2.677,2.67,2.664,2.651,2.639,2.632,2.62,2.608,2.601,2.589,2.577,2.565,2.559,2.553,2.548,2.542,2.542,2.536,2.536,2.536,2.536,2.53,2.53,2.53,2.524,2.524,2.519,2.513,2.502,2.49,2.479,2.463,2.452,2.436,2.425,2.409,2.399,2.388,2.378,2.368,2.363,2.358,2.348,2.343,2.338,2.333,2.328,2.323,2.318,2.318,2.318,2.314,2.314,2.314,2.314,2.314,2.314,2.314,2.314,2.314,2.314,2.314,2.314,2.314,2.314,2.309,2.309,2.304,2.299,2.294,2.29,2.285,2.276,2.266,2.262,2.257,2.252,2.248,2.243,2.243,2.239,2.234,2.23,2.23,2.221,2.216,2.212,2.208,2.208,2.203,2.199,2.199,2.194,2.194
1.721,1.721,1.721,1.724,1.726,1.726,1.726,1.726,1.726,1.726,1.724,1.724,1.724,1.724,1.724,1.724,1.724,1.724,1.726,1.729,1.729,1.732,1.732,1.732,1.732,1.732,1.734,1.732,1.732,1.732,1.732,1.734,1.737,1.74,1.74,1.742,1.745,1.748,1.751,1.754,1.754,1.754,1.754,1.756,1.756,1.756,1.756,1.754,1.751,1.748,1.742,1.737,1.732,1.724,1.715,1.708,1.697,1.689,1.682,1.674,1.669,1.661,1.657,1.652,1.647,1.644,1.642,1.639,1.639,1.637,1.637,1.637,1.639,1.642,1.644,1.647,1.649,1.652,1.654,1.657,1.657,1.654,1.654,1.652,1.647,1.647,1.644,1.642,1.642,1.642,1.642,1.642,1.644,1.644,1.647,1.649,1.649,1.647,1.647,1.644,1.639,1.637,1.63,1.625,1.62,0,1.618,0,0,0,0,0,0,0,0,0,0,0,0,0,0,0,0,0,0,1.606,0,1.613,1.615,1.618,1.618,1.62,1.623,1.625,1.63,1.632,1.637,1.642,1.649,1.661,1.672,0,0,1.695,1.697,1.697,1.695,1.692,1.684,1.674,0,1.659,1.659,1.659,1.661,1.664,1.672,1.679,1.687,1.695,1.705,1.715,1.729,1.742,1.748,1.756,1.762,1.767,1.773,1.773,1.773,1.767,1.767,1.765,1.762,1.762,1.759,1.756,1.756,1.754,1.754,1.754,1.756,1.756,1.756,1.759,1.762,1.765,1.765,1.767,1.77,1.773,1.773,1.77,1.77,1.77,1.767,1.77,1.77,1.773,1.776,1.782,1.787,1.79,1.799,1.805,1.811,1.811,1.814,1.817,1.817,1.817,1.817,1.814,1.814,1.814,1.817,1.814,1.811,1.808,1.802,1.799,1.796,1.793,1.79,1.785,1.782,1.782,1.779,1.779,1.782,1.779,1.779,1.779,1.776,1.776,1.776,1.776,1.773,1.77,1.767,1.762,1.759,1.756,1.754,1.748,1.745,1.742,1.74,1.737,0,1.732,0,0,0,0,0,3.944,3.93,3.93,3.93,3.93,3.944,3.944,3.944,3.958,3.958,3.972,3.972,3.972,3.972,3.972,0,0,0,0,0,0,0,0,0,0,0,0,0,0,0,0,0,0,0,0,0,0,0,3.944,3.944,3.944,3.944,3.944,3.93,3.93,3.93,3.93,3.93,3.93,3.93,3.93,3.93,3.944,3.944,3.944,3.944,3.944,3.944,3.93,3.916,3.916,3.916,3.902,3.902,3.902,3.902,3.902,3.888,3.888,3.875,3.875,3.875,3.861,3.848,3.835,3.821,3.808,3.808,3.795,3.782,3.769,3.769,3.757,3.744,3.744,3.731,3.719,3.706,3.694,3.682,3.67,3.645,3.633,3.622,3.61,3.598,3.586,3.563,3.552,3.529,3.518,3.496,3.474,3.452,3.442,3.42,3.41,3.399,3.389,3.368,3.358,3.348,3.338,3.328,3.318,3.308,3.298,3.298,3.288,3.279,3.279,3.269,3.25,3.24,3.231,3.222,3.212,3.203,3.185,3.166,3.157,3.139,3.122,3.113,3.096,3.078,3.061,3.053,3.045,3.028,3.02,3.011,3.003,2.995,2.987,2.979,2.963,2.947,2.932,2.916,2.894,2.871,2.849,2.834,2.813,2.799,2.784,2.777,2.771,2.764,2.757,2.75,2.743,2.736,2.723,2.716,2.71,2.696,2.683,2.677,2.664,2.658,2.645,2.639,2.626,2.614,2.608,2.595,2.583,2.577,2.571,2.565,2.559,2.553,2.553,2.548,2.548,2.542,2.542,2.536,2.53,2.53,2.524,2.519,2.507,2.502,2.49,2.474,2.463,2.452,2.436,2.42,2.409,2.399,2.388,2.378,2.373,2.368,2.358,2.353,2.348,2.343,2.338,2.333,2.328,2.323,2.323,2.323,2.318,2.318,2.318,2.318,2.318,2.318,2.318,2.318,2.318,2.318,2.318,2.318,2.318,2.318,2.314,2.314,2.309,2.304,2.294,2.29,2.285,2.28,2.271,2.266,2.257,2.252,2.248,2.243,2.243,2.239,2.234,2.23,2.23,2.225,2.216,2.212,2.208,2.203,2.199,2.199,2.194,2.19,2.19
1.721,1.721,1.721,1.726,1.726,1.726,1.726,1.726,1.726,1.726,1.726,1.724,1.724,1.724,1.724,1.724,1.724,1.726,1.729,1.729,1.732,1.732,1.732,1.732,1.732,1.732,1.734,1.732,1.732,1.732,1.732,1.734,1.737,1.74,1.74,1.742,1.745,1.748,1.751,1.756,1.756,1.756,1.756,1.756,1.759,1.759,1.759,1.756,1.756,1.751,1.748,1.742,1.737,1.732,1.724,1.715,1.708,1.697,1.689,1.682,1.677,1.669,1.661,1.659,1.652,1.647,1.647,1.644,1.642,1.639,1.639,1.642,1.642,1.647,1.649,1.652,1.654,1.657,1.659,1.659,1.659,1.659,1.657,1.654,1.652,1.649,1.647,1.647,1.647,1.647,1.647,1.647,1.649,1.652,1.654,1.652,1.654,1.652,1.652,1.649,1.644,0,0,0,0,0,0,0,0,0,0,0,0,0,0,0,0,0,0,0,0,0,0,0,0,0,0,0,1.62,1.623,1.623,1.623,1.627,1.627,1.632,1.637,1.639,1.647,1.654,1.669,0,1.687,0,1.7,1.702,0,1.702,0,1.687,0,0,0,0,1.657,1.659,1.661,1.669,1.677,1.684,1.692,1.705,1.713,1.729,1.742,1.748,1.756,1.765,1.77,1.776,1.776,1.773,1.77,1.77,1.767,1.765,1.762,1.762,1.759,1.759,1.759,1.759,1.759,1.759,1.759,1.759,1.762,1.762,1.765,1.765,1.767,1.77,1.77,1.773,1.77,1.77,1.767,1.767,1.77,1.773,1.776,1.779,1.785,1.787,1.793,1.802,1.808,1.814,1.817,1.82,1.823,1.826,1.826,1.826,1.823,1.82,1.82,1.82,1.82,1.814,1.811,1.805,1.802,1.799,1.796,1.793,1.787,1.785,1.782,1.782,1.779,1.782,1.779,1.779,1.779,1.779,1.779,1.779,1.776,1.773,1.77,1.767,1.765,1.762,1.759,1.751,1.748,1.745,1.742,1.74,0,0,0,0,0,0,0,3.944,3.944,3.93,3.944,3.944,3.944,3.944,3.958,3.958,3.958,3.958,3.972,3.972,3.972,3.972,3.972,3.958,3.958,0,0,0,0,0,0,0,0,0,0,0,0,0,0,0,0,0,3.944,3.944,3.944,3.944,3.944,3.944,3.944,3.944,3.944,3.93,3.944,3.93,3.93,3.93,3.93,3.93,3.944,3.944,3.944,3.944,3.958,3.944,3.944,3.944,3.944,3.944,3.93,3.93,3.916,3.916,3.916,3.916,3.916,3.902,3.902,3.902,3.888,3.875,3.875,3.861,3.848,3.821,3.821,3.808,3.808,3.795,3.782,3.769,3.769,3.757,3.744,3.731,3.719,3.706,3.694,3.682,3.67,3.645,3.633,3.622,3.61,3.598,3.586,3.563,3.552,3.529,3.518,3.496,3.485,3.463,3.442,3.431,3.41,3.399,3.389,3.379,3.368,3.348,3.338,3.338,3.328,3.318,3.308,3.298,3.288,3.288,3.279,3.269,3.259,3.25,3.24,3.231,3.222,3.203,3.194,3.175,3.166,3.148,3.131,3.113,3.096,3.078,3.07,3.053,3.045,3.028,3.02,3.02,3.011,3.003,2.995,2.987,2.979,2.955,2.947,2.924,2.909,2.886,2.864,2.842,2.827,2.813,2.799,2.784,2.777,2.771,2.764,2.757,2.75,2.743,2.736,2.73,2.723,2.71,2.703,2.69,2.683,2.677,2.664,2.658,2.645,2.632,2.62,2.608,2.601,2.589,2.583,2.577,2.571,2.565,2.559,2.559,2.553,2.548,2.542,2.536,2.53,2.524,2.519,2.513,2.502,2.496,2.485,2.468,2.457,2.446,2.436,2.42,2.409,2.399,2.388,2.383,2.373,2.368,2.363,2.358,2.348,2.343,2.338,2.333,2.333,2.328,2.328,2.323,2.323,2.323,2.323,2.323,2.323,2.323,2.323,2.323,2.323,2.323,2.323,2.323,2.323,2.323,2.318,2.318,2.314,2.304,2.299,2.294,2.285,2.28,2.271,2.266,2.262,2.252,2.248,2.243,2.243,2.239,2.234,2.23,2.225,2.221,2.216,2.212,2.208,2.203,2.199,2.194,2.194,2.186,2.182
1.721,1.721,1.724,1.726,1.726,1.726,1.726,1.726,1.726,1.726,1.726,1.726,1.724,1.724,1.724,1.724,1.726,1.726,1.729,1.732,1.732,1.732,1.732,1.732,1.732,1.732,1.734,1.732,1.732,1.732,1.732,1.737,1.74,1.74,1.742,1.745,1.745,1.748,1.754,1.756,1.756,1.756,1.756,1.759,1.759,1.762,1.762,1.759,1.759,1.756,1.754,1.751,1.745,1.737,1.732,1.724,1.715,1.708,1.697,1.692,1.684,1.677,1.669,1.664,1.657,1.654,1.652,1.649,1.647,1.644,1.644,1.647,1.647,1.649,1.652,1.654,1.657,1.659,1.661,1.661,1.661,1.661,1.659,1.657,1.654,1.654,1.654,1.652,1.652,1.652,1.652,1.654,1.654,1.657,1.657,1.659,1.659,1.657,1.657,1.652,0,0,0,0,0,0,0,0,0,0,0,0,0,0,0,0,0,0,0,0,0,0,0,0,0,0,0,0,0,1.625,1.625,0,0,0,1.635,1.639,1.644,1.654,1.661,0,1.687,1.695,1.702,1.71,1.71,1.71,0,0,0,0,0,0,0,1.657,1.659,1.664,1.672,1.679,1.687,1.692,1.702,1.715,1.732,1.742,1.751,1.756,1.767,1.773,1.779,1.773,1.776,1.773,1.77,1.77,1.767,1.765,1.765,1.762,1.762,1.762,1.762,1.762,1.762,1.762,1.759,1.762,1.762,1.765,1.765,1.767,1.767,1.77,1.77,1.77,1.77,1.767,1.767,1.767,1.77,1.773,1.779,1.785,1.79,1.796,1.802,1.814,1.82,1.823,1.826,1.832,1.832,1.835,1.835,1.832,1.829,1.826,1.826,1.823,1.82,1.814,1.805,1.802,1.802,1.799,1.793,1.787,1.785,1.782,1.782,1.782,1.782,1.782,1.779,1.779,1.782,1.779,1.776,1.776,1.773,1.773,1.77,1.767,1.762,1.759,1.754,1.751,1.748,1.745,0,0,0,0,0,0,0,0,3.944,3.944,3.944,3.944,3.944,3.944,3.958,3.958,3.958,3.958,3.958,3.972,3.972,3.972,3.972,3.958,3.944,3.944,3.944,0,0,0,0,0,0,0,0,0,0,0,0,0,0,0,3.958,3.958,3.944,3.944,3.944,3.944,3.944,3.944,3.944,3.944,3.944,3.944,3.944,3.944,3.944,3.944,3.944,3.944,3.944,3.958,3.958,3.958,3.958,3.958,3.958,3.958,3.958,3.944,3.944,3.944,3.944,3.93,3.93,3.93,3.93,3.916,3.916,3.902,3.902,3.875,3.861,3.848,3.835,3.821,3.808,3.808,3.795,3.782,3.782,3.769,3.757,3.744,3.731,3.719,3.706,3.694,3.682,3.67,3.645,3.633,3.622,3.61,3.598,3.586,3.563,3.552,3.529,3.518,3.496,3.485,3.463,3.442,3.431,3.42,3.41,3.389,3.379,3.368,3.358,3.348,3.338,3.328,3.328,3.318,3.308,3.298,3.288,3.279,3.269,3.269,3.259,3.25,3.231,3.222,3.212,3.194,3.185,3.166,3.148,3.131,3.122,3.104,3.087,3.07,3.053,3.045,3.036,3.028,3.02,3.011,3.003,3.003,2.987,2.979,2.971,2.955,2.932,2.916,2.894,2.878,2.856,2.834,2.82,2.806,2.791,2.784,2.784,2.777,2.771,2.764,2.764,2.757,2.743,2.736,2.73,2.716,2.71,2.703,2.69,2.683,2.67,2.658,2.645,2.639,2.626,2.614,2.608,2.595,2.589,2.577,2.571,2.565,2.559,2.553,2.548,2.542,2.536,2.53,2.524,2.519,2.507,2.502,2.49,2.479,2.468,2.457,2.446,2.43,2.42,2.409,2.399,2.394,2.383,2.378,2.373,2.363,2.358,2.353,2.348,2.343,2.343,2.338,2.333,2.333,2.333,2.328,2.328,2.328,2.328,2.328,2.328,2.328,2.328,2.328,2.328,2.328,2.323,2.323,2.323,2.323,2.318,2.314,2.309,2.304,2.294,2.29,2.28,2.276,2.266,2.262,2.257,2.248,2.243,2.243,2.239,2.234,2.23,2.225,2.221,2.216,2.212,2.203,2.199,2.194,2.19,2.186,2.182,2.177
