0,0,0,0,0,0,0,0,0,0,0,0,0,0,0,0,0,0,0,0,0,0,0,0,0,0,0,0,0,0,0,0.452,0.451,0.45,0.45,0.449,0.448,0.447,0.446,0.445,0.444,0.443,0.443,0.442,0.442,0.441,0.441,0.44,0.44,0.44,0.439,0.439,0.438,0.438,0.437,0.436,0.436,0.435,0.435,0.434,0.434,0.434,0.433,0.433,0.432,0.432,0.431,0.431,0.431,0.43,0.43,0.429,0.428,0.428,0.427,0.426,0.425,0.424,0.423,0.422,0.421,0.42,0.419,0.419,0.418,0.418,0.417,0.417,0.417,0.418,0.418,0.419,0.419,0.42,0.42,0.421,0.421,0.422,0.422,0.422,0.423,0.423,0.423,0.423,0.424,0.424,0.424,0.425,0.425,0.426,0.427,0.428,0.429,0.43,0.431,0.433,0.435,0.436,0.438,0.44,0.441,0.442,0.443,0.444,0.445,0.446,0.446,0.448,0.449,0.45,0.451,0.453,0.454,0.455,0.456,0.457,0.458,0.459,0.459,0.459,0.459,0.459,0.459,0.459,0.459,0.459,0.459,0.459,0.459,0.459,0.46,0.46,0.46,0.46,0.46,0.46,0.46,0.46,0.461,0.461,0.461,0.461,0.461,0.461,0.461,0.461,0.462,0.462,0.462,0.462,0.462,0.462,0.462,0.462,0.462,0.462,0.462,0.462,0.462,0.463,0.463,0.463,0.463,0.463,0.463,0.464,0.464,0.464,0.465,0.465,0.465,0.466,0.466,0.466,0.466,0.467,0.467,0.468,0.468,0.469,0.469,0.47,0.47,0.47,0.471,0.471,0.471,0.472,0.472,0.473,0.473,0.474,0.474,0.475,0.476,0.476,0.477,0.477,0.477,0.477,0.477,0.477,0.476,0.476,0.476,0.476,0.475,0.476,0.476,0.476,0.477,0.477,0.478,0.479,0.479,0.479,0.48,0.48,0.48,0.48,0.48,0.48,0.48,0.48,0.48,0.48,0.48,0.479,0.479,0.479,0.479,0.479,0.479,0.478,0.478,0.478,0.478,0.477,0.477,0.477,0.477,0.477,0.477,0.477,0.477,0.477,0.476,0.476,0.476,0.476,0.476,0.476,0.476,0.476,0.476,0.476,0.476,0.476,0.476,0.476,0.476,0.476,0.477,0.478,0.479,0.481,0.483,0.486,0.489,0.492,0.495,0.497,0.5,0.502,0.504,0.506,0.507,0.507,0.508,0.509,0.509,0.51,0.51,0.511,0.512,0.513,0.514,0.515,0.517,0.519,0.52,0.521,0.522,0.524,0.525,0.526,0.527,0.528,0.529,0.53,0.531,0.531,0.532,0.532,0.533,0.533,0.534,0.534,0.535,0.536,0.536,0.537,0.537,0.538,0.539,0,0.658,0.658,0.66,0.66,0,0,0.668,0.672,0.675,0.679,0.681,0.684,0.687,0.688,0.689,0.69,0.691,0.692,0.693,0.694,0.695,0.697,0.697,0.699,0.7,0.701,0.703,0.704,0.705,0.707,0.709,0.711,0.712,0.713,0.714,0.715,0.716,0.717,0.719,0.72,0.721,0.722,0.723,0.724,0.725,0.725,0.726,0.726,0.727,0.727,0.728,0.729,0.73,0.731,0.733,0.735,0.736,0.737,0.737,0.738,0.737,0.737,0.735,0.733,0.73,0,0,0.718,0.714,0.709,0.705,0.702,0.701,0.702,0.703,0.704,0.705,0.705,0.705,0.705,0.705,0.705,0.705,0.705,0.706,0.708,0.709,0.711,0.712,0.713,0.714,0.715,0.715,0.715,0.715,0.715,0.716,0.716,0.717,0.718,0.719,0.721,0,0,0,0,0,0,0.766,0,0,0,0,0.796,0,0.814,0.817,0,0.822,0.824,0.828,0.831,0.834,0.837,0.84,0.843,0.848,0.852,0.857,0.861,0.866,0.869,0.872,0.875,0.876,0.878,0.879,0.88,0.881,0.881,0,0,0,1.051,1.052,1.051,1.051,1.052,1.052,1.052,1.052,1.052,1.052,1.052,1.052,1.052,1.051,1.051,1.051,1.05,1.05,1.049,1.049,1.049,1.049,1.049,1.048,1.048,1.047,1.047,1.046,1.046,1.046,1.044,1.044,1.044,1.044,1.044,1.044,1.044,1.044,1.044,1.044,1.044,1.045,1.045,1.046,1.047,1.047,1.048,1.049,1.048,1.048,1.047,1.047,1.047,1.046,1.045,1.045,1.045,1.045,1.045,1.045,1.046,1.047,1.047,1.047
0,0,0,0,0,0,0,0,0,0,0,0,0,0,0,0,0,0,0,0,0,0,0,0,0,0,0,0,0,0,0.453,0.452,0.452,0.451,0.45,0.449,0.448,0.447,0.446,0.445,0.445,0.444,0.443,0.443,0.442,0.442,0.441,0.441,0.44,0.44,0.439,0.439,0.438,0.438,0.437,0.436,0.436,0.436,0.435,0.435,0.434,0.434,0.434,0.433,0.433,0.432,0.432,0.431,0.431,0.43,0.43,0.429,0.428,0.428,0.427,0.426,0.425,0.424,0.423,0.422,0.421,0.42,0.419,0.419,0.418,0.418,0.417,0.417,0.418,0.418,0.419,0.419,0.42,0.421,0.421,0.422,0.422,0.422,0.423,0.423,0.423,0.424,0.424,0.424,0.424,0.425,0.425,0.426,0.426,0.427,0.428,0.429,0.43,0.431,0.432,0.434,0.435,0.437,0.439,0.44,0.441,0.442,0.443,0.444,0.445,0.446,0.446,0.447,0.448,0.449,0.45,0.452,0.453,0.455,0.456,0.457,0.458,0.459,0.459,0.46,0.46,0.46,0.46,0.46,0.46,0.459,0.459,0.459,0.46,0.46,0.46,0.46,0.46,0.46,0.46,0.46,0.461,0.461,0.461,0.461,0.461,0.461,0.461,0.461,0.461,0.461,0.462,0.462,0.462,0.462,0.462,0.462,0.462,0.462,0.462,0.462,0.462,0.462,0.463,0.463,0.463,0.463,0.463,0.464,0.464,0.464,0.464,0.464,0.465,0.465,0.465,0.466,0.466,0.466,0.467,0.467,0.468,0.468,0.468,0.469,0.469,0.47,0.47,0.47,0.471,0.471,0.471,0.472,0.472,0.473,0.473,0.474,0.474,0.475,0.475,0.476,0.477,0.477,0.477,0.477,0.477,0.477,0.477,0.476,0.476,0.476,0.476,0.476,0.476,0.477,0.477,0.478,0.478,0.479,0.479,0.479,0.48,0.48,0.48,0.48,0.48,0.48,0.48,0.48,0.48,0.48,0.48,0.48,0.48,0.479,0.479,0.479,0.479,0.479,0.479,0.479,0.478,0.478,0.478,0.478,0.477,0.477,0.477,0.477,0.477,0.477,0.477,0.477,0.476,0.476,0.476,0.476,0.476,0.476,0.476,0.476,0.477,0.476,0.477,0.477,0.477,0.477,0.477,0.479,0.48,0.481,0.483,0.486,0.489,0.492,0.495,0.497,0.5,0.502,0.504,0.506,0.507,0.508,0.509,0.509,0.51,0.511,0.511,0.512,0.513,0.514,0.515,0.516,0.518,0.519,0.521,0.522,0.523,0.524,0.525,0.526,0.528,0.529,0.53,0.531,0.532,0.532,0.532,0.533,0.533,0.534,0.534,0.535,0.535,0.536,0.537,0.537,0.538,0.538,0.539,0,0.658,0.659,0.66,0.662,0,0.666,0.67,0.674,0.677,0.68,0.682,0.685,0.687,0.689,0.69,0.691,0.692,0.693,0.694,0.696,0.697,0.698,0.699,0.701,0.702,0.703,0.705,0.706,0.707,0.709,0.711,0.712,0.713,0.715,0.715,0.716,0.717,0.718,0.72,0.721,0.721,0.722,0.723,0.724,0.725,0.726,0.727,0.728,0.73,0.731,0.731,0.733,0.735,0.736,0.738,0.739,0.74,0.742,0.741,0.742,0.742,0.742,0.742,0.741,0.738,0,0,0,0.722,0.715,0.709,0.704,0.702,0.703,0.703,0.704,0.705,0.705,0.705,0.705,0.705,0.705,0.704,0.705,0.706,0.707,0.709,0.71,0.711,0.712,0.713,0.713,0.714,0.714,0.714,0.714,0.715,0.716,0.718,0.719,0.72,0.721,0,0.725,0,0.73,0.734,0,0.741,0,0,0,0,0,0,0,0,0,0.818,0.82,0.823,0.826,0.83,0.831,0.834,0.837,0.841,0.845,0.851,0.854,0.859,0.862,0.866,0.869,0.87,0.871,0.872,0.872,0.873,0,0,0,0,1.052,1.052,1.052,1.051,1.052,1.052,1.052,1.053,1.052,1.052,1.052,1.052,1.052,1.051,1.051,1.05,1.05,1.049,1.049,1.048,1.048,1.048,1.047,1.047,1.047,1.047,1.046,1.046,1.046,1.045,1.044,1.044,1.044,1.044,1.044,1.044,1.044,1.044,1.044,1.044,1.044,1.045,1.045,1.046,1.046,1.047,1.048,1.049,1.048,1.048,1.047,1.047,1.047,1.046,1.046,1.045,1.045,1.045,1.045,1.045,1.046,1.047,1.047,1.047
0,0,0,0,0,0,0,0,0,0,0,0,0,0,0,0,0,0,0,0,0,0,0,0,0,0,0,0,0,0.454,0.453,0.453,0.452,0.451,0.45,0,0.448,0.447,0.446,0.446,0.445,0.444,0.443,0.443,0.442,0.442,0.441,0.441,0.44,0.44,0.439,0.439,0.438,0.438,0.437,0.437,0.436,0.436,0.435,0.435,0.435,0.434,0.434,0.433,0.433,0.432,0.432,0.431,0.431,0.431,0.43,0.429,0.428,0.428,0.427,0.426,0.425,0.424,0.423,0.422,0.421,0.42,0.419,0.419,0.418,0.418,0.418,0.418,0.418,0.419,0.42,0.42,0.421,0.421,0.422,0.423,0.423,0.423,0.424,0.424,0.424,0.424,0.425,0.425,0.425,0.426,0.426,0.427,0.427,0.428,0.429,0.43,0.431,0.432,0.433,0.435,0.436,0.438,0.439,0.441,0.442,0.442,0.443,0.444,0.445,0.445,0.446,0.447,0.448,0.448,0.45,0.451,0.453,0.454,0.456,0.457,0.458,0.459,0.46,0.46,0.46,0.46,0.46,0.46,0.46,0.46,0.46,0.46,0.46,0.46,0.46,0.46,0.46,0.46,0.461,0.461,0.461,0.461,0.461,0.461,0.461,0.461,0.461,0.461,0.461,0.461,0.462,0.462,0.462,0.462,0.462,0.462,0.462,0.462,0.462,0.462,0.462,0.463,0.463,0.463,0.463,0.463,0.463,0.464,0.464,0.464,0.464,0.465,0.465,0.465,0.466,0.466,0.466,0.466,0.467,0.467,0.468,0.468,0.469,0.469,0.469,0.47,0.47,0.471,0.471,0.471,0.471,0.472,0.472,0.473,0.473,0.474,0.474,0.475,0.475,0.476,0.477,0.477,0.477,0.477,0.477,0.477,0.477,0.477,0.476,0.476,0.476,0.476,0.476,0.477,0.477,0.478,0.479,0.479,0.479,0.48,0.48,0.48,0.48,0.48,0.48,0.48,0.48,0.48,0.48,0.48,0.48,0.48,0.48,0.48,0.48,0.48,0.48,0.479,0.479,0.479,0.479,0.478,0.478,0.478,0.478,0.478,0.478,0.478,0.477,0.477,0.477,0.477,0.477,0.477,0.477,0.477,0.477,0.477,0.477,0.477,0.477,0.477,0.477,0.477,0.477,0.478,0.478,0.479,0.48,0.482,0.484,0.486,0.489,0.492,0.495,0.498,0.5,0.502,0.505,0.507,0.508,0.508,0.509,0.51,0.51,0.511,0.512,0.513,0.514,0.514,0.516,0.517,0.519,0.52,0.521,0.522,0.523,0.525,0.526,0.527,0.528,0.53,0.531,0.532,0.532,0.533,0.533,0.533,0.534,0.534,0.535,0.535,0.536,0.536,0.537,0.537,0.538,0.538,0.539,0,0,0.66,0.662,0.664,0.666,0.668,0.672,0.675,0.679,0.681,0.683,0.686,0.688,0.69,0.691,0.692,0.693,0.694,0.696,0.697,0.698,0.699,0.701,0.702,0.704,0.705,0.706,0.707,0.708,0.71,0.711,0.713,0.714,0.715,0.716,0.717,0.718,0.719,0.72,0.721,0.722,0.723,0.724,0.725,0.725,0.726,0.728,0.729,0.73,0.731,0.733,0.734,0.736,0.737,0.739,0.741,0.742,0.743,0.744,0.745,0.746,0.747,0.747,0.747,0.746,0.744,0.742,0,0,0,0,0,0,0,0,0,0,0,0,0,0,0,0,0,0,0,0,0,0,0.71,0.711,0.711,0.711,0.712,0.712,0.713,0.715,0.716,0.718,0.719,0.721,0.722,0.724,0.725,0.728,0.73,0.732,0.734,0.736,0.739,0.741,0.744,0.748,0,0,0.783,0.792,0,0.81,0,0,0,0.823,0.825,0,0.829,0.833,0.837,0.843,0.847,0.852,0.854,0.858,0.862,0.863,0.862,0,0,0,0,0,0,1.052,1.052,1.052,1.052,1.052,1.052,1.052,1.053,1.052,1.052,1.051,1.051,1.051,1.051,1.051,1.051,1.05,1.049,1.049,1.048,1.048,1.048,1.047,1.046,1.046,1.046,1.046,1.046,1.046,1.046,1.045,1.044,1.044,1.044,1.044,1.044,1.044,1.044,1.044,1.044,1.044,1.044,1.044,1.045,1.045,1.046,1.047,1.048,1.048,1.048,1.048,1.047,1.047,1.047,1.046,1.046,1.045,1.045,1.045,1.045,1.046,1.047,1.047,1.047,1.047
0,0,0,0,0,0,0,0,0,0,0,0,0,0,0,0,0,0,0,0,0,0,0,0,0,0,0,0,0,0.454,0.454,0.453,0.453,0.452,0.451,0,0.449,0.448,0.447,0.446,0.445,0.445,0.444,0.443,0.443,0.442,0.442,0.441,0.44,0.44,0.439,0.439,0.438,0.438,0.437,0.436,0.436,0.436,0.435,0.435,0.435,0.434,0.434,0.433,0.433,0.432,0.432,0.432,0.431,0.43,0.43,0.429,0.428,0.427,0.426,0.426,0.424,0.424,0.422,0.421,0.421,0.42,0.419,0.419,0.419,0.419,0.418,0.419,0.419,0.42,0.42,0.421,0.421,0.422,0.422,0.423,0.423,0.423,0.424,0.424,0.424,0.425,0.425,0.425,0.426,0.427,0.427,0.428,0.429,0.429,0.43,0.431,0.432,0.433,0.434,0.436,0.437,0.438,0.44,0.441,0.442,0.443,0.444,0.445,0.445,0.445,0.446,0.446,0.447,0.448,0.449,0.45,0.452,0.454,0.455,0.456,0.458,0.459,0.46,0.46,0.46,0.461,0.461,0.46,0.46,0.46,0.46,0.46,0.46,0.46,0.46,0.46,0.461,0.461,0.461,0.461,0.461,0.461,0.461,0.461,0.461,0.461,0.461,0.461,0.461,0.462,0.462,0.462,0.462,0.462,0.462,0.462,0.462,0.462,0.462,0.462,0.463,0.463,0.463,0.463,0.463,0.463,0.464,0.464,0.464,0.464,0.465,0.465,0.465,0.465,0.466,0.466,0.466,0.466,0.467,0.467,0.468,0.468,0.469,0.469,0.469,0.47,0.47,0.471,0.471,0.471,0.472,0.472,0.472,0.473,0.473,0.474,0.475,0.475,0.476,0.476,0.477,0.477,0.478,0.478,0.478,0.478,0.477,0.477,0.477,0.477,0.476,0.476,0.477,0.477,0.477,0.478,0.479,0.479,0.479,0.48,0.48,0.48,0.48,0.48,0.481,0.481,0.481,0.481,0.481,0.48,0.48,0.48,0.48,0.48,0.48,0.48,0.48,0.48,0.48,0.48,0.479,0.479,0.479,0.479,0.478,0.478,0.478,0.478,0.478,0.478,0.478,0.478,0.477,0.477,0.477,0.477,0.477,0.477,0.478,0.478,0.478,0.478,0.478,0.478,0.478,0.478,0.479,0.48,0.481,0.483,0.485,0.488,0.491,0.494,0.496,0.499,0.501,0.503,0.505,0.507,0.508,0.509,0.51,0.51,0.511,0.512,0.513,0.514,0.515,0.516,0.517,0.518,0.519,0.521,0.522,0.523,0.524,0.525,0.527,0.528,0.529,0.53,0.531,0.532,0.533,0.533,0.534,0.534,0.534,0.535,0.535,0.536,0.536,0.537,0.537,0.538,0.538,0.539,0,0,0,0,0.664,0.666,0.668,0.67,0.673,0.677,0.68,0.682,0.685,0.687,0.689,0.691,0.692,0.693,0.694,0.695,0.697,0.698,0.699,0.701,0.702,0.704,0.705,0.706,0.708,0.708,0.709,0.711,0.713,0.714,0.715,0.716,0.717,0.718,0.719,0.72,0.721,0.721,0.722,0.723,0.724,0.725,0.725,0.727,0.728,0.729,0.731,0.731,0.733,0.735,0.736,0.738,0.74,0.742,0.743,0.745,0.746,0.747,0.749,0.75,0.752,0.752,0.753,0.752,0.751,0.752,0,0,0,0,0,0,0,0,0,0,0,0,0,0,0,0,0,0,0,0,0,0,0,0.711,0.711,0.711,0,0,0,0,0,0.719,0.721,0.723,0.724,0.726,0.729,0.73,0.732,0.734,0.736,0.739,0.741,0.744,0,0.753,0.762,0.768,0.774,0.78,0.787,0.794,0.798,0.804,0.809,0.811,0.815,0.82,0.825,0.829,0,0,0,0,0,0,0,0,0.851,0,0,0,0,0,1.052,1.053,1.053,1.052,1.053,1.053,1.053,1.053,1.053,1.052,1.052,1.052,1.052,1.051,1.051,1.051,1.05,1.049,1.049,1.048,1.048,1.047,1.046,1.046,1.046,1.045,1.046,1.046,1.046,1.045,1.045,1.044,1.044,1.044,1.044,1.044,1.043,1.043,1.043,1.044,1.044,1.044,1.044,1.045,1.045,1.046,1.047,1.047,1.048,1.047,1.047,1.047,1.047,1.047,1.047,1.046,1.046,1.046,1.046,1.046,1.047,1.047,1.047,1.047,1.047
0,0,0,0,0,0,0,0,0,0,0,0,0,0,0,0,0,0,0,0,0,0,0,0,0,0,0,0,0,0,0.454,0.454,0.453,0.452,0,0,0.449,0.448,0.447,0.446,0.446,0.445,0.444,0.444,0.443,0.443,0.442,0.441,0.44,0.44,0.439,0.439,0.438,0.438,0.437,0.436,0.436,0.436,0.435,0.435,0.435,0.434,0.434,0.433,0.433,0.432,0.432,0.431,0.43,0.43,0.429,0.429,0.428,0.427,0.426,0.425,0.424,0.423,0.422,0.421,0.42,0.42,0.419,0.419,0.419,0.419,0.419,0.419,0.42,0.42,0.421,0.421,0.422,0.422,0.423,0.423,0.423,0.424,0.424,0.425,0.425,0.425,0.426,0.426,0.427,0.428,0.428,0.429,0.43,0.431,0.432,0.433,0.434,0.434,0.435,0.437,0.438,0.439,0.44,0.442,0.443,0.443,0.444,0.445,0.445,0.446,0.446,0.446,0.447,0.447,0.448,0.45,0.451,0.453,0.454,0.456,0.457,0.459,0.459,0.46,0.461,0.461,0.461,0.461,0.461,0.46,0.46,0.46,0.461,0.461,0.461,0.461,0.461,0.461,0.461,0.461,0.461,0.461,0.461,0.461,0.461,0.461,0.461,0.462,0.462,0.462,0.462,0.462,0.462,0.462,0.462,0.462,0.462,0.462,0.463,0.463,0.463,0.463,0.463,0.463,0.463,0.464,0.464,0.464,0.464,0.465,0.465,0.465,0.465,0.466,0.466,0.466,0.466,0.467,0.467,0.467,0.468,0.468,0.469,0.469,0.47,0.47,0.471,0.471,0.471,0.471,0.472,0.472,0.472,0.473,0.473,0.474,0.475,0.476,0.476,0.477,0.477,0.478,0.478,0.478,0.478,0.478,0.478,0.477,0.477,0.477,0.477,0.477,0.477,0.477,0.477,0.478,0.479,0.479,0.479,0.48,0.48,0.481,0.481,0.481,0.481,0.481,0.481,0.481,0.481,0.481,0.481,0.481,0.481,0.481,0.481,0.481,0.481,0.48,0.48,0.48,0.48,0.48,0.479,0.479,0.479,0.479,0.479,0.479,0.479,0.479,0.479,0.478,0.478,0.478,0.478,0.478,0.478,0.478,0.478,0.478,0.478,0.479,0.479,0.479,0.479,0.479,0.48,0.481,0.482,0.484,0.486,0.489,0.493,0.495,0.497,0.5,0.502,0.504,0.506,0.508,0.509,0.509,0.51,0.511,0.512,0.513,0.514,0.515,0.516,0.517,0.518,0.519,0.52,0.521,0.522,0.523,0.525,0.526,0.527,0.529,0.53,0.531,0.532,0.533,0.534,0.534,0.534,0.535,0.535,0.535,0.536,0.536,0.537,0.537,0.538,0.538,0.539,0,0,0,0,0,0,0.669,0.67,0.672,0.676,0.679,0.682,0.684,0.686,0.688,0.69,0.692,0.693,0.694,0.695,0.697,0.698,0.7,0.701,0.702,0.704,0.705,0.706,0.708,0.709,0.71,0.711,0.712,0.714,0.715,0.716,0.717,0.718,0.719,0.72,0.721,0.721,0.722,0.722,0.723,0.724,0.725,0.726,0.727,0.728,0.73,0.731,0.732,0.734,0.735,0.737,0.739,0.741,0.742,0.744,0.746,0.748,0.75,0.751,0.753,0.755,0.756,0.757,0.758,0.758,0,0,0,0,0,0,0,0,0,0,0,0,0,0,0,0,0,0,0,0,0,0,0,0,0,0,0,0,0,0,0,0,0.72,0.721,0.723,0.724,0.726,0.729,0.731,0.733,0.735,0.737,0.74,0.742,0.745,0.749,0.75,0.756,0.76,0.765,0.769,0.773,0.78,0.784,0.789,0.796,0.8,0.805,0.81,0.814,0.819,0.824,0,0,0,0,0,0,0.844,0,0,0,0,0,0,0,1.053,1.053,1.053,1.053,1.053,1.054,1.054,1.053,1.053,1.052,1.053,1.052,1.052,1.052,1.052,1.051,1.05,1.049,1.049,1.048,1.047,1.046,1.046,1.045,1.045,1.045,1.045,1.045,1.045,1.044,1.044,1.044,1.044,1.044,1.043,1.043,1.043,1.043,1.044,1.044,1.044,1.044,1.044,1.045,1.046,1.047,1.047,1.047,1.047,1.047,1.047,1.047,1.047,1.048,1.047,1.047,1.047,1.047,1.047,1.047,1.047,1.047,1.047,1.047
0,0,0,0,0,0,0,0,0,0,0,0,0,0,0,0,0,0,0,0,0,0,0,0,0,0,0,0,0,0.455,0.455,0.455,0.454,0.453,0,0,0.449,0.448,0.447,0.446,0.446,0.446,0.445,0.444,0.444,0.443,0.442,0.442,0.441,0.44,0.439,0.439,0.438,0.437,0.437,0.436,0.436,0.435,0.435,0.435,0.434,0.434,0.433,0.433,0.432,0.431,0.431,0.43,0.43,0.429,0.428,0.428,0.427,0.426,0.425,0.424,0.423,0.423,0.422,0.421,0.42,0.42,0.42,0.42,0.419,0.42,0.42,0.42,0.42,0.421,0.421,0.422,0.422,0.423,0.423,0.424,0.424,0.425,0.425,0.426,0.426,0.427,0.427,0.428,0.428,0.429,0.43,0.431,0.432,0.432,0.433,0.434,0.435,0.436,0.437,0.438,0.439,0.44,0.441,0.442,0.443,0.444,0.445,0.445,0.445,0.446,0.446,0.446,0.446,0.447,0.448,0.449,0.45,0.452,0.454,0.455,0.457,0.458,0.459,0.46,0.46,0.461,0.461,0.461,0.461,0.46,0.461,0.461,0.461,0.461,0.461,0.461,0.461,0.461,0.461,0.461,0.461,0.461,0.461,0.461,0.461,0.462,0.462,0.462,0.462,0.462,0.462,0.462,0.462,0.462,0.462,0.462,0.462,0.463,0.463,0.463,0.463,0.463,0.463,0.463,0.463,0.464,0.464,0.464,0.465,0.465,0.465,0.465,0.466,0.466,0.466,0.466,0.466,0.467,0.467,0.467,0.468,0.468,0.469,0.469,0.47,0.47,0.471,0.471,0.471,0.472,0.472,0.472,0.473,0.473,0.474,0.474,0.475,0.476,0.476,0.477,0.478,0.478,0.479,0.479,0.479,0.478,0.478,0.478,0.477,0.477,0.477,0.477,0.477,0.477,0.478,0.478,0.479,0.479,0.48,0.48,0.481,0.481,0.481,0.481,0.481,0.481,0.481,0.481,0.482,0.481,0.481,0.481,0.482,0.482,0.482,0.481,0.481,0.481,0.481,0.481,0.48,0.48,0.48,0.48,0.479,0.479,0.479,0.479,0.479,0.479,0.479,0.479,0.479,0.479,0.479,0.479,0.479,0.479,0.479,0.479,0.479,0.479,0.479,0.479,0.479,0.48,0.48,0.483,0.485,0.487,0.489,0.492,0.495,0.497,0.499,0.501,0.503,0.505,0.506,0.508,0.509,0.51,0.511,0.512,0.512,0.513,0.514,0.515,0.516,0.517,0.519,0.52,0.521,0.522,0.523,0.524,0.525,0.527,0.528,0.529,0.53,0.532,0.533,0.534,0.534,0.535,0.535,0.535,0.536,0.536,0.536,0.537,0.537,0.538,0.538,0.538,0,0,0,0,0,0,0,0,0,0.675,0.678,0.681,0.683,0.685,0.687,0.69,0.691,0.693,0.694,0.695,0.697,0.697,0.699,0.701,0.702,0.703,0.705,0.706,0.708,0.709,0.71,0.711,0.712,0.713,0.715,0.716,0.717,0.718,0.719,0.72,0.721,0.721,0.722,0.722,0.723,0.724,0.724,0.725,0.726,0.728,0.729,0.731,0.732,0.733,0.735,0.736,0.738,0.74,0.741,0.743,0.745,0.747,0.749,0.751,0.753,0.755,0.757,0.759,0.761,0.762,0.763,0.766,0,0.771,0,0,0,0,0,0,0,0,0,0,0,0,0,0,0,0,0,0,0,0,0,0,0,0,0,0,0,0,0,0.721,0.722,0.724,0.725,0.727,0.729,0.731,0.733,0.735,0.738,0.741,0.742,0.745,0.748,0.749,0.751,0,0.754,0,0,0,0.765,0,0,0.788,0.793,0.798,0.802,0.806,0.81,0,0,0,0,0.828,0.83,0.833,0.833,0.832,0.834,0,0,0,0,1.053,1.054,1.054,1.054,1.055,1.055,1.055,1.054,1.054,1.054,1.054,1.053,1.054,1.054,1.053,1.052,1.052,1.051,1.05,1.049,1.048,1.047,1.046,1.046,1.045,1.045,1.045,1.045,1.045,1.044,1.044,1.044,1.044,1.043,1.043,1.043,1.042,1.043,1.043,1.044,1.044,1.044,1.044,1.045,1.046,1.046,1.047,1.047,1.047,1.047,1.047,1.047,1.047,1.047,1.047,1.047,1.047,1.047,1.047,1.047,1.047,1.047,1.047,1.047
0,0,0,0,0,0,0,0,0,0,0,0,0,0,0,0,0,0,0,0,0,0,0,0,0,0,0,0,0,0,0,0.458,0.456,0.455,0,0,0.45,0.448,0.448,0.447,0.446,0.446,0.445,0.445,0.444,0.443,0.443,0.442,0.441,0.441,0.44,0.439,0.438,0.437,0.437,0.436,0.436,0.435,0.435,0.435,0.434,0.434,0.433,0.432,0.432,0.431,0.43,0.43,0.429,0.428,0.427,0.427,0.426,0.425,0.424,0.423,0.423,0.422,0.422,0.421,0.421,0.42,0.42,0.42,0.42,0.42,0.421,0.421,0.421,0.421,0.422,0.422,0.423,0.423,0.424,0.424,0.425,0.426,0.426,0.427,0.428,0.428,0.429,0.43,0.43,0.431,0.432,0.432,0.433,0.434,0.434,0.435,0.436,0.437,0.438,0.439,0.44,0.441,0.442,0.443,0.444,0.444,0.445,0.445,0.445,0.446,0.446,0.446,0.446,0.446,0.447,0.448,0.45,0.451,0.453,0.454,0.456,0.458,0.459,0.46,0.46,0.461,0.461,0.461,0.461,0.461,0.461,0.461,0.461,0.46,0.46,0.461,0.461,0.461,0.461,0.461,0.461,0.461,0.461,0.461,0.462,0.462,0.462,0.462,0.462,0.462,0.462,0.462,0.462,0.462,0.462,0.462,0.463,0.463,0.463,0.463,0.463,0.463,0.463,0.463,0.464,0.464,0.464,0.465,0.465,0.465,0.465,0.466,0.466,0.466,0.466,0.466,0.467,0.467,0.467,0.468,0.468,0.468,0.469,0.469,0.47,0.47,0.471,0.471,0.472,0.472,0.472,0.473,0.473,0.474,0.474,0.475,0.476,0.476,0.477,0.478,0.478,0.479,0.479,0.479,0.479,0.479,0.479,0.478,0.478,0.478,0.477,0.477,0.477,0.478,0.478,0.479,0.479,0.48,0.48,0.481,0.481,0.481,0.481,0.481,0.482,0.482,0.482,0.482,0.482,0.482,0.482,0.482,0.482,0.482,0.482,0.482,0.482,0.482,0.482,0.482,0.481,0.481,0.481,0.481,0.48,0.48,0.48,0.48,0.48,0.48,0.48,0.48,0.48,0.48,0.48,0.48,0.48,0.48,0.48,0.48,0.48,0.48,0.48,0.48,0.48,0.48,0.484,0.485,0.488,0.49,0.492,0.495,0.498,0.499,0.501,0.503,0.504,0.506,0.507,0.509,0.51,0.51,0.511,0.512,0.513,0.514,0.515,0.516,0.517,0.518,0.519,0.52,0.522,0.523,0.524,0.525,0.526,0.528,0.529,0.53,0.532,0.533,0.534,0.534,0.535,0.535,0.536,0.536,0.536,0.536,0.537,0.537,0.538,0.538,0.538,0,0,0,0,0,0,0,0,0,0,0.677,0.679,0.682,0.685,0.687,0.688,0.69,0.692,0.693,0.695,0.696,0.697,0.698,0.7,0.701,0.703,0.704,0.706,0.707,0.709,0.71,0.711,0.712,0.713,0.714,0.715,0.717,0.718,0.719,0.72,0.721,0.722,0.722,0.723,0.723,0.724,0.725,0.725,0.726,0.727,0.728,0.73,0.731,0.733,0.735,0.736,0.738,0.739,0.741,0.743,0.744,0.746,0.748,0.75,0.752,0.754,0.756,0.759,0.762,0.763,0.765,0.766,0.769,0.77,0.772,0.774,0,0.778,0.778,0,0.779,0,0,0,0,0,0,0,0,0,0,0,0,0,0,0,0,0,0,0,0,0,0,0,0,0,0,0.725,0.728,0.729,0.731,0.733,0.736,0.738,0.741,0.744,0.746,0.748,0.75,0.752,0,0,0,0,0.761,0.764,0,0.774,0.778,0.783,0.787,0.79,0.793,0.796,0.797,0,0,0,0.811,0.814,0.817,0.82,0.822,0,0,0,0,0,0,0,0,0,0,0,0,1.056,1.056,1.055,1.055,1.056,1.056,1.056,1.056,1.055,1.054,1.053,1.051,1.05,1.049,1.047,1.046,1.045,1.045,1.045,1.045,1.045,1.045,1.044,1.044,1.044,1.044,1.044,1.043,1.043,1.043,1.043,1.044,1.044,1.044,1.044,1.045,1.045,1.046,1.046,1.047,1.047,1.047,1.047,1.047,1.047,1.047,1.047,1.047,1.047,1.047,1.047,1.047,1.047,1.047,1.047,1.047,1.047
0,0,0,0,0,0,0,0,0,0,0,0,0,0,0,0,0,0,0,0,0,0,0,0,0,0,0,0,0,0,0,0.461,0.459,0.456,0,0,0.451,0.449,0.448,0.448,0.447,0.446,0.446,0.445,0.445,0.444,0.443,0.443,0.442,0.441,0.44,0.439,0.438,0.438,0.437,0.436,0.436,0.435,0.435,0.434,0.434,0.433,0.433,0.432,0.431,0.43,0.43,0.429,0.428,0.427,0.427,0.426,0.425,0.424,0.424,0.423,0.423,0.422,0.422,0.421,0.421,0.421,0.421,0.421,0.421,0.421,0.421,0.422,0.422,0.422,0.422,0.423,0.423,0,0,0.425,0.426,0.427,0.428,0.428,0.429,0.43,0.431,0.431,0.432,0.433,0.433,0.434,0.435,0.435,0.436,0.437,0.437,0.439,0.439,0.44,0.441,0.442,0.443,0.444,0.444,0.445,0.445,0.445,0.446,0.446,0.446,0.446,0.446,0.447,0.447,0.448,0.449,0.45,0.452,0.454,0.455,0.457,0.458,0.459,0.46,0.46,0.461,0.461,0.461,0.461,0.461,0.461,0.461,0.46,0.46,0.461,0.461,0.461,0.461,0.461,0.461,0.461,0.461,0.462,0.462,0.462,0.462,0.462,0.462,0.462,0.462,0.462,0.462,0.462,0.462,0.463,0.463,0.463,0.463,0.463,0.463,0.463,0.464,0.464,0.464,0.464,0.465,0.465,0.465,0.465,0.466,0.466,0.466,0.466,0.467,0.467,0.467,0.467,0.467,0.468,0.468,0.469,0.469,0.469,0.47,0.47,0.471,0.471,0.472,0.472,0.473,0.473,0.474,0.474,0.475,0.475,0.476,0.477,0.477,0.478,0.479,0.479,0.479,0.48,0.479,0.479,0.479,0.478,0.478,0.478,0.477,0.477,0.478,0.478,0.478,0.479,0.479,0.48,0.48,0.481,0.481,0.482,0.482,0.482,0.482,0.482,0.482,0.482,0.483,0.483,0.483,0.483,0.484,0.484,0.484,0.484,0.483,0.483,0.483,0.483,0.482,0.482,0.482,0.481,0.481,0.481,0.481,0.481,0.481,0.481,0.481,0.481,0.481,0.48,0.48,0.481,0.481,0.481,0.481,0.481,0.481,0.481,0.481,0.481,0.482,0.484,0.485,0.488,0.49,0.493,0,0.498,0.5,0.502,0.503,0.504,0.505,0.507,0.508,0.509,0.51,0.511,0.512,0.513,0.513,0.514,0.515,0.517,0.518,0.519,0.52,0.522,0.523,0.524,0.525,0.526,0.528,0.529,0.53,0.531,0.533,0.534,0.534,0.535,0.536,0.536,0.536,0.537,0.537,0.537,0.538,0.538,0.539,0.539,0.539,0.54,0,0,0,0,0,0,0,0,0,0.682,0.683,0.685,0.687,0.689,0.69,0.692,0.693,0.694,0.696,0.697,0.698,0.699,0.701,0.702,0.704,0.705,0.706,0.708,0.71,0.711,0.713,0.714,0.715,0.715,0.716,0.718,0.719,0.72,0.721,0.722,0.723,0.724,0.724,0.724,0.725,0.726,0.727,0.727,0.728,0.73,0.731,0.733,0.735,0.737,0.738,0.74,0.741,0.743,0.744,0.745,0.747,0.75,0.752,0.754,0.756,0.759,0.761,0.763,0.765,0.767,0.769,0.77,0.772,0.773,0.775,0.777,0.778,0.779,0.779,0.78,0.781,0.783,0,0,0,0,0,0,0,0,0,0,0,0,0,0,0,0,0,0,0,0,0,0,0,0,0,0.728,0.729,0.732,0.734,0.737,0.74,0.743,0.745,0.747,0.749,0.751,0.753,0.753,0.754,0.756,0.757,0.76,0.763,0.767,0.77,0.774,0.778,0.781,0.783,0.785,0.786,0,0.788,0.791,0.795,0.8,0.803,0.808,0.812,0.817,0,0,0,0,0,0,0,0,0,1.056,1.057,1.057,1.057,1.057,1.057,1.057,1.057,1.058,1.058,1.058,1.057,1.056,1.055,1.053,1.052,1.05,1.048,1.047,1.046,1.045,1.045,1.045,1.045,1.045,1.045,1.045,1.044,1.044,1.044,1.044,1.044,1.044,1.044,1.044,1.044,1.044,1.044,1.045,1.046,1.046,1.046,1.047,1.047,1.047,1.047,1.047,1.047,1.047,1.048,1.047,1.047,1.047,1.047,1.048,1.048,1.048,1.047,1.047,1.047
0,0,0,0,0,0,0,0,0,0,0,0,0,0,0,0,0,0,0,0,0,0,0,0,0,0,0,0,0,0,0,0.464,0.462,0.459,0.457,0,0,0.451,0.45,0.448,0.448,0.447,0.447,0.446,0.446,0.445,0.444,0.443,0.442,0.442,0.441,0.44,0.439,0.438,0.437,0.436,0.436,0.435,0.435,0.434,0.434,0.433,0.432,0.432,0.431,0.43,0.429,0.428,0.428,0.427,0.426,0.425,0.425,0.424,0.424,0.423,0.423,0.422,0.422,0.422,0.421,0.421,0.421,0.421,0.421,0.422,0.422,0.422,0.422,0.423,0.423,0.423,0.424,0.425,0.426,0.427,0.427,0.428,0.429,0.43,0.431,0.432,0.432,0.433,0.434,0.434,0.435,0.436,0.436,0.437,0.437,0.438,0.439,0.44,0.44,0.441,0.442,0.443,0.444,0.444,0.445,0.446,0.446,0.446,0.446,0.446,0.446,0.446,0.446,0.446,0.447,0.448,0.449,0.45,0.451,0.453,0.454,0.456,0.457,0.458,0.459,0.459,0.46,0.46,0.461,0.461,0.461,0.461,0.461,0.46,0.46,0.46,0.461,0.461,0.461,0.461,0.461,0.461,0.461,0.462,0.462,0.462,0.462,0.462,0.462,0.462,0.462,0.462,0.462,0.462,0.463,0.463,0.463,0.463,0.463,0.463,0.464,0.464,0.464,0.464,0.464,0.465,0.465,0.465,0.465,0.465,0.466,0.466,0.466,0.466,0.467,0.467,0.467,0.467,0.468,0.468,0.469,0.469,0.469,0.47,0.47,0.471,0.471,0.472,0.472,0.473,0.473,0.474,0.474,0.475,0.475,0.476,0.476,0.477,0.478,0.479,0.479,0.48,0.48,0.48,0.48,0.48,0.48,0.479,0.479,0.478,0.478,0.478,0.478,0.478,0.479,0.479,0.48,0.48,0.48,0.481,0.481,0.482,0.482,0.482,0.482,0.483,0.483,0.483,0.484,0.484,0.484,0.484,0.484,0.484,0.484,0.484,0.484,0.484,0.484,0.484,0.483,0.483,0.483,0.483,0.482,0.482,0.482,0.482,0.482,0.482,0.482,0.482,0.482,0.482,0.482,0.482,0.482,0.482,0.482,0.482,0.482,0.482,0.482,0.482,0.483,0.485,0.487,0.49,0,0.496,0.499,0.501,0.503,0.504,0.505,0.506,0.507,0.508,0.509,0.51,0.511,0.511,0.512,0.513,0.514,0.515,0.516,0.517,0.518,0.52,0.521,0.522,0.524,0.525,0.526,0.527,0.529,0.53,0.531,0.533,0.534,0.535,0.535,0.536,0.536,0.537,0.537,0.537,0.538,0.538,0.538,0.539,0.539,0.54,0.54,0.54,0.54,0,0,0,0,0,0,0,0,0.687,0.687,0.688,0.689,0.69,0.691,0.693,0.694,0.695,0.696,0.697,0.699,0.7,0.701,0.703,0.704,0.705,0.707,0.709,0.711,0.712,0.714,0.715,0.716,0.717,0.718,0.719,0.72,0.721,0.722,0.723,0.724,0.724,0.725,0.725,0.726,0.727,0.727,0.729,0.73,0.731,0.733,0.735,0.737,0.739,0.74,0.742,0.743,0.745,0.746,0.747,0.749,0.751,0.753,0.756,0.758,0.76,0.763,0.765,0.767,0.769,0.77,0.771,0.773,0.774,0.776,0.777,0.778,0.779,0.779,0.78,0.782,0.783,0.785,0,0,0,0,0,0,0,0,0,0,0,0,0,0,0,0,0,0,0,0,0,0,0,0,0,0,0,0,0,0.741,0.743,0.746,0.748,0.75,0.752,0.753,0.753,0,0.755,0.755,0.759,0.762,0.764,0.767,0.772,0,0,0.781,0.783,0.783,0.784,0.785,0.789,0,0.795,0,0.804,0.81,0.815,0,0,0,0,0,0,0,0,0,1.057,1.057,1.058,1.059,1.059,1.058,1.059,1.059,1.06,1.06,1.06,1.059,1.058,1.056,1.055,1.054,1.051,1.05,1.048,1.047,1.046,1.046,1.046,1.046,1.046,1.046,1.046,1.046,1.045,1.044,1.044,1.044,1.044,1.044,1.044,1.044,1.044,1.045,1.046,1.046,1.046,1.047,1.047,1.047,1.047,1.047,1.047,1.047,1.047,1.048,1.047,1.047,1.047,1.048,1.048,1.048,1.048,1.047,1.047,1.048
0,0,0,0,0,0,0,0,0,0,0,0,0,0,0,0,0,0,0,0,0,0,0,0,0,0,0,0,0,0.467,0.466,0.466,0.464,0,0.459,0,0,0,0.451,0.45,0.449,0.448,0.448,0.447,0.446,0.446,0.445,0.444,0.443,0.442,0.441,0.44,0.439,0.438,0.437,0.436,0.436,0.435,0.435,0.434,0.434,0.433,0.432,0.431,0.43,0.43,0.429,0.428,0.427,0.426,0.426,0.425,0.425,0.424,0.424,0.423,0.423,0.422,0.422,0.422,0.422,0.422,0.422,0.422,0.422,0.422,0.422,0.423,0.423,0.424,0.424,0.425,0.425,0,0,0.428,0.429,0.43,0.431,0.432,0.433,0.434,0.434,0.435,0.435,0.436,0.436,0.437,0.438,0.438,0.439,0.439,0.44,0.441,0.442,0.442,0.443,0.444,0.445,0.445,0.445,0.446,0.446,0.446,0.446,0.446,0.446,0.446,0.446,0.447,0.447,0.448,0.449,0.45,0.451,0.452,0.453,0.454,0.456,0.457,0.458,0.459,0.459,0.459,0.46,0.46,0.46,0.461,0.461,0.461,0.46,0.461,0.461,0.461,0.461,0.461,0.461,0.461,0.462,0.462,0.462,0.462,0.462,0.462,0.462,0.462,0.462,0.462,0.462,0.463,0.463,0.463,0.463,0.463,0.463,0.463,0.464,0.464,0.464,0.464,0.465,0.465,0.465,0.465,0.466,0.466,0.466,0.466,0.467,0.467,0.467,0.467,0.467,0.468,0.468,0.468,0.469,0.469,0.47,0.47,0.47,0.471,0.471,0.472,0.473,0.473,0.474,0.474,0.475,0.475,0.476,0.477,0.477,0.478,0.479,0.479,0.48,0.48,0.481,0.481,0.481,0.481,0.48,0.48,0.479,0.479,0.479,0.478,0.478,0.479,0.479,0.479,0.48,0.48,0.481,0.481,0.482,0.482,0.482,0.482,0.483,0.483,0.484,0.484,0.484,0.484,0.484,0.485,0.485,0.485,0.485,0.485,0.485,0.485,0.485,0.485,0.484,0.484,0.484,0.484,0.484,0.483,0.483,0.483,0.483,0.483,0.483,0.483,0.483,0.483,0.483,0.483,0.483,0.483,0.483,0.483,0.483,0.484,0.484,0.484,0.485,0.487,0.489,0,0.497,0.499,0.501,0.503,0.505,0.505,0.506,0.507,0.508,0.509,0.51,0.51,0.511,0.512,0.513,0.514,0.514,0.515,0.517,0.518,0.519,0.52,0.522,0.523,0.525,0.526,0.527,0.529,0.53,0.532,0.533,0.534,0.535,0.535,0.536,0.537,0.537,0.538,0.538,0.538,0.538,0.538,0.539,0.539,0.54,0.54,0.54,0.54,0,0,0,0,0,0,0,0,0,0.69,0.69,0.691,0.692,0.692,0.693,0.694,0.695,0.696,0.697,0.698,0.7,0.701,0.702,0.704,0.705,0.706,0.708,0.71,0.712,0.713,0.715,0.716,0.717,0.718,0.719,0.721,0.721,0.722,0.723,0.724,0.724,0.725,0.726,0.726,0.727,0.728,0.728,0.73,0.731,0.732,0.734,0.736,0.738,0.74,0.742,0.744,0.745,0.747,0.747,0.749,0.751,0.753,0.755,0.757,0.76,0.762,0.764,0.766,0.769,0.77,0.771,0.772,0.774,0.775,0.776,0.778,0.779,0.779,0.78,0.781,0.783,0.784,0.785,0.787,0.789,0.792,0.794,0.797,0,0,0,0,0,0,0,0,0,0,0,0,0,0,0,0,0,0,0,0,0,0,0,0.746,0.748,0.748,0.751,0.75,0.75,0.751,0.752,0.752,0.752,0.753,0.755,0.757,0.761,0.763,0.766,0.77,0.773,0.776,0.778,0.78,0.781,0.783,0.784,0.786,0,0.793,0.797,0,0,0,0,0,0,0,0,0,0,0,1.059,1.058,1.058,1.059,1.059,1.06,1.059,1.06,1.06,1.06,1.062,1.062,1.062,1.059,1.058,1.056,1.055,1.053,1.051,1.05,1.048,1.048,1.047,1.047,1.047,1.047,1.047,1.047,1.046,1.046,1.046,1.045,1.045,1.044,1.044,1.044,1.045,1.045,1.046,1.046,1.046,1.047,1.048,1.048,1.047,1.047,1.047,1.047,1.047,1.047,1.048,1.047,1.047,1.047,1.047,1.048,1.048,1.047,1.047,1.047,1.048
0,0,0,0,0,0,0,0,0,0,0,0,0,0,0,0,0,0,0,0,0,0,0,0,0,0,0,0.471,0.47,0.469,0.468,0.467,0.466,0.464,0.462,0,0,0,0,0.452,0.45,0.449,0.449,0.448,0.447,0.446,0.445,0.444,0.443,0.442,0.441,0.44,0.439,0.438,0.437,0.436,0.436,0.435,0.435,0.434,0.434,0.433,0.432,0.431,0.43,0.429,0.429,0.428,0.427,0.426,0.426,0.425,0.425,0.424,0.424,0.423,0.423,0.423,0.423,0.422,0.422,0.422,0.422,0.422,0.423,0.423,0.423,0.424,0.424,0.425,0,0,0,0,0,0.43,0.431,0.432,0.433,0.434,0.434,0.435,0.436,0.437,0.437,0.438,0.438,0.439,0.439,0.439,0.44,0.44,0.441,0.442,0.442,0.443,0.444,0.444,0.445,0.445,0.446,0.446,0.446,0.446,0.446,0.446,0.446,0.446,0.447,0.447,0.447,0.448,0.448,0.449,0.45,0.451,0.452,0.453,0.454,0.455,0.456,0.457,0.458,0.458,0.459,0.459,0.46,0.46,0.46,0.46,0.46,0.46,0.461,0.461,0.461,0.461,0.461,0.461,0.462,0.462,0.462,0.462,0.462,0.462,0.463,0.463,0.463,0.463,0.463,0.463,0.463,0.463,0.463,0.463,0.464,0.464,0.464,0.464,0.464,0.465,0.465,0.465,0.465,0.466,0.466,0.466,0.466,0.466,0.467,0.467,0.467,0.467,0.467,0.468,0.468,0.468,0.469,0.469,0.47,0.47,0.471,0.471,0.472,0.472,0.473,0.474,0.474,0.475,0.476,0.476,0.476,0.477,0.478,0.479,0.479,0.48,0.481,0.481,0.481,0.482,0.482,0.481,0.481,0.481,0.48,0.48,0.479,0.479,0.479,0.479,0.479,0.48,0.48,0.48,0.481,0.481,0.482,0.482,0.482,0.483,0.483,0.484,0.484,0.485,0.485,0.485,0.485,0.486,0.486,0.486,0.486,0.486,0.486,0.486,0.486,0.486,0.485,0.485,0.485,0.485,0.485,0.485,0.485,0.485,0.485,0.485,0.484,0.484,0.484,0.484,0.484,0.484,0.484,0.484,0.484,0.484,0.485,0.485,0.485,0.486,0.487,0.489,0.492,0,0.499,0.501,0.504,0.506,0.507,0.507,0.508,0.509,0.509,0.51,0.51,0.511,0.512,0.512,0.513,0.514,0.515,0.516,0.517,0.519,0.52,0.521,0.523,0.524,0.526,0.527,0.529,0.53,0.532,0.533,0.534,0.535,0.536,0.537,0.537,0.538,0.538,0.538,0.539,0.539,0.539,0.539,0.54,0.54,0.54,0.54,0.54,0.541,0,0,0,0,0,0,0,0,0,0,0,0,0.693,0.693,0.694,0.695,0.696,0.697,0.698,0.7,0.701,0.702,0.703,0.705,0.706,0.708,0.709,0.711,0.713,0.715,0.716,0.717,0.719,0.72,0.721,0.722,0.722,0.723,0.724,0.725,0.725,0.726,0.727,0.727,0.728,0.729,0.73,0.731,0.732,0.734,0.736,0.738,0.74,0.742,0.743,0.745,0.747,0.748,0.749,0.75,0.752,0.754,0.756,0.759,0.761,0.763,0.765,0.768,0.77,0.771,0.772,0.773,0.774,0.776,0.776,0.777,0.779,0.78,0.78,0.782,0.783,0.784,0.786,0.788,0.79,0,0.795,0.797,0,0,0,0,0.801,0.801,0,0,0,0,0,0,0,0,0,0,0,0,0,0,0,0,0,0,0,0.768,0.764,0.761,0.76,0.76,0.759,0.757,0.756,0.756,0.757,0.759,0.762,0.763,0.765,0.769,0.772,0.774,0.777,0.779,0.78,0.781,0.782,0.784,0.786,0.789,0.792,0,0,0,0,0,0,0,0,0,0,0,0,1.06,1.059,1.06,1.059,1.062,1.062,1.062,1.063,1.063,1.064,1.063,1.063,1.062,1.059,1.057,1.056,1.054,1.052,1.051,1.05,1.049,1.048,1.048,1.048,1.048,1.048,1.048,1.048,1.047,1.047,1.047,1.046,1.046,1.045,1.045,1.045,1.046,1.046,1.046,1.048,1.047,1.048,1.048,1.048,1.047,1.047,1.047,1.047,1.048,1.047,1.047,1.047,1.047,1.047,1.047,1.047,1.047,1.047,1.047,1.048
0,0,0,0,0,0,0,0,0,0,0,0,0,0,0,0,0,0,0,0,0,0,0,0,0,0,0,0.472,0.471,0.47,0.469,0.468,0.467,0.465,0.464,0.461,0,0,0.455,0.453,0.452,0.45,0.45,0.449,0.448,0.447,0.446,0.445,0.444,0.443,0.442,0.44,0.439,0.438,0.438,0.437,0.436,0.436,0.435,0.434,0.434,0.433,0.433,0.432,0.431,0.43,0.429,0.428,0.427,0.426,0.426,0.425,0.425,0.424,0.424,0.424,0.423,0.423,0.423,0.423,0.423,0.423,0.423,0.423,0.423,0.424,0.424,0.425,0.425,0.426,0,0,0,0,0.43,0.432,0.433,0.434,0.435,0.435,0.436,0.437,0.438,0.438,0.438,0.439,0.439,0.44,0.44,0.44,0.441,0.441,0.442,0.443,0.443,0.444,0.445,0.445,0.446,0.446,0.446,0.447,0.447,0.447,0.447,0.447,0.447,0.447,0.447,0.447,0.447,0.448,0.448,0.449,0.449,0.45,0.451,0.452,0.452,0.453,0.454,0.455,0.456,0.456,0.457,0.458,0.458,0.459,0.459,0.46,0.46,0.46,0.46,0.461,0.461,0.461,0.461,0.461,0.462,0.462,0.462,0.462,0.462,0.463,0.463,0.463,0.463,0.463,0.463,0.463,0.463,0.463,0.464,0.464,0.464,0.464,0.464,0.464,0.465,0.465,0.465,0.465,0.466,0.466,0.466,0.466,0.466,0.467,0.467,0.467,0.467,0.467,0.468,0.468,0.468,0.469,0.469,0.47,0.47,0.471,0.471,0.472,0.472,0.473,0.474,0.474,0.475,0.476,0.476,0.477,0.477,0.478,0.479,0.48,0.48,0.481,0.482,0.482,0.482,0.483,0.483,0.483,0.482,0.481,0.481,0.48,0.48,0.479,0.479,0.479,0.48,0.48,0.48,0.481,0.481,0.482,0.482,0.483,0.483,0.483,0.484,0.484,0.485,0.485,0.485,0.486,0.486,0.487,0.487,0.487,0.487,0.487,0.487,0.487,0.487,0.487,0.486,0.486,0.486,0.486,0.486,0.486,0.486,0.486,0.486,0.486,0.486,0.485,0.486,0.485,0.485,0.485,0.485,0.486,0.486,0.486,0.486,0.487,0.487,0.488,0.489,0.492,0,0,0,0.503,0.505,0.507,0.508,0.508,0.509,0.51,0.51,0.51,0.511,0.511,0.512,0.513,0.514,0.515,0.516,0.517,0.518,0.519,0.52,0.522,0.523,0.525,0.527,0.528,0.53,0.531,0.533,0.534,0.535,0.536,0.537,0.538,0.538,0.539,0.539,0.539,0.539,0.54,0.54,0.54,0.54,0.54,0.54,0.541,0.541,0.541,0.541,0,0,0,0,0,0,0,0,0,0.693,0.693,0.693,0.694,0.695,0.696,0.697,0.698,0.699,0.701,0.701,0.703,0.704,0.705,0.707,0.709,0.71,0.712,0.714,0.715,0.717,0.718,0.72,0.721,0.722,0.723,0.724,0.725,0.725,0.726,0.727,0.727,0.728,0.729,0.73,0.731,0.731,0.733,0.734,0.736,0.738,0.74,0.741,0.743,0.745,0.747,0.748,0.749,0.75,0.752,0.754,0.756,0.758,0.76,0.762,0.764,0.766,0.769,0.77,0.772,0.773,0.774,0.775,0.776,0.777,0.778,0.779,0.78,0.781,0.783,0.784,0.785,0.787,0.788,0.791,0.793,0.795,0.797,0.798,0.798,0.799,0.8,0.801,0.802,0.804,0.805,0.807,0,0,0,0,0,0,0,0,0,0,0,0,0,0,0,0,0.785,0.78,0.775,0.773,0.772,0.77,0.767,0.765,0.763,0.763,0.764,0.766,0.766,0.767,0.77,0.773,0.776,0.778,0.779,0.78,0.782,0.782,0.783,0.784,0.786,0.788,0,0,0,0,0,0,0,0,0,0,0,0,0,0,0,0,1.062,1.063,1.063,1.063,1.063,1.064,1.064,1.063,1.063,1.06,1.058,1.057,1.055,1.054,1.052,1.051,1.05,1.05,1.049,1.049,1.049,1.049,1.049,1.049,1.049,1.048,1.048,1.047,1.047,1.046,1.046,1.046,1.046,1.046,1.047,1.048,1.047,1.048,1.048,1.048,1.047,1.047,1.047,1.047,1.048,1.047,1.047,1.047,1.047,1.047,1.047,1.048,1.048,1.048,1.048,1.049
0,0,0,0,0,0,0,0,0,0,0,0,0,0,0,0,0,0,0,0,0,0,0,0,0,0.473,0.473,0.472,0.471,0.471,0.47,0.469,0.468,0.467,0.465,0.463,0.461,0,0,0.455,0.453,0.452,0.451,0.45,0.448,0.447,0.446,0.445,0.444,0.443,0.442,0.441,0.44,0.439,0.438,0.437,0.436,0.436,0.435,0.435,0.434,0.433,0.433,0.432,0.431,0.43,0.429,0.428,0.427,0.427,0.426,0.426,0.425,0.425,0.425,0.424,0.424,0.424,0.424,0.424,0.423,0.424,0.424,0.424,0.424,0.425,0.425,0.426,0.426,0.427,0.428,0.429,0.43,0.431,0.432,0.433,0.434,0.435,0.435,0.436,0.437,0.438,0.438,0.439,0.439,0.44,0.44,0.44,0.441,0.441,0.442,0.442,0.443,0.443,0.444,0.445,0.445,0.446,0.446,0.447,0.447,0.447,0.447,0.447,0.447,0.447,0.447,0.447,0.447,0.447,0.448,0.448,0.448,0.448,0.449,0.449,0.45,0.45,0.451,0.451,0.452,0.453,0,0,0.455,0.456,0.457,0.458,0.459,0.459,0.459,0.46,0.46,0.46,0.461,0.461,0.461,0.461,0.462,0.462,0.462,0.462,0.462,0.463,0.463,0.463,0.463,0.463,0.463,0.463,0.464,0.464,0.464,0.464,0.464,0.464,0.465,0.465,0.465,0.465,0.465,0.465,0.466,0.466,0.466,0.466,0.466,0.467,0.467,0.467,0.467,0.468,0.468,0.468,0.468,0.469,0.469,0.47,0.47,0.471,0.472,0.472,0.473,0.474,0.474,0.475,0.476,0.476,0.477,0.477,0.478,0.479,0.48,0.48,0.481,0.482,0.483,0.484,0.484,0.484,0.484,0.484,0.483,0.482,0.481,0.481,0.48,0.48,0.48,0.48,0.48,0.48,0.481,0.481,0.482,0.482,0.483,0.483,0.484,0.484,0.484,0.485,0.485,0.486,0.486,0.487,0.487,0.488,0.488,0.488,0.488,0.488,0.488,0.488,0.488,0.487,0.488,0.488,0.488,0.488,0.488,0.488,0.488,0.488,0.488,0.488,0.487,0.487,0.487,0.487,0.487,0.487,0.487,0.487,0.487,0.488,0.488,0.488,0.488,0.489,0.491,0.494,0.497,0,0.503,0.505,0.507,0.509,0.509,0.51,0.51,0.51,0.511,0.511,0.512,0.512,0.513,0.514,0.514,0.515,0.516,0.517,0.518,0.52,0.521,0.522,0.524,0.526,0.528,0.529,0.531,0.532,0.534,0.535,0.536,0.537,0.538,0.538,0.539,0.539,0.54,0.54,0.54,0.54,0.54,0.54,0.54,0.541,0.541,0.541,0.541,0.541,0,0,0,0,0,0,0,0,0,0,0.693,0.693,0.694,0.695,0.695,0.697,0.697,0.698,0.7,0.701,0.702,0.704,0.705,0.707,0.708,0.71,0.711,0.713,0.715,0.716,0.718,0.719,0.721,0.722,0.723,0.724,0.725,0.726,0.726,0.727,0.728,0.729,0.729,0.73,0.731,0.733,0.734,0.735,0.737,0.738,0.74,0.742,0.743,0.745,0.747,0.749,0.75,0.751,0.752,0.754,0.756,0.757,0.76,0.761,0.763,0.765,0.767,0.77,0.771,0.772,0.773,0.774,0.776,0.777,0.778,0.779,0.78,0.781,0.782,0.784,0.785,0.787,0.788,0.789,0.792,0.793,0.796,0,0.798,0.799,0.8,0.8,0.802,0.802,0.804,0.805,0.808,0.811,0.814,0,0,0,0,0,0,0,0,0,0.825,0.823,0.818,0,0,0,0,0,0,0.785,0.784,0.782,0.779,0.776,0.776,0.774,0.775,0.774,0.774,0.776,0.777,0.778,0.779,0.78,0.781,0.781,0.781,0.782,0.782,0.782,0.785,0,0,0,0,0,0,0,0,0,0,0,0,0,0,1.063,0,0,1.064,1.064,1.064,1.064,1.064,1.064,1.063,1.063,1.062,1.06,1.058,1.056,1.054,1.053,1.053,1.051,1.05,1.05,1.05,1.05,1.051,1.051,1.05,1.049,1.049,1.049,1.048,1.047,1.047,1.046,1.046,1.046,1.047,1.047,1.048,1.047,1.048,1.048,1.048,1.047,1.047,1.047,1.047,1.047,1.047,1.047,1.047,1.047,1.047,1.047,1.048,1.048,1.048,1.048,1.049
0,0,0,0,0,0,0,0,0,0,0,0,0,0,0,0,0,0,0,0,0,0,0,0,0,0.473,0.473,0.472,0.472,0.471,0.47,0.47,0.468,0.468,0.467,0.464,0.463,0.461,0,0.457,0.455,0.453,0.452,0.451,0.449,0.448,0.446,0.445,0.444,0.443,0.442,0.441,0.44,0.439,0.438,0.437,0.437,0.436,0.435,0.435,0.434,0.434,0.433,0.432,0.431,0.43,0.43,0.429,0.428,0.427,0.427,0.426,0.426,0.425,0.425,0.425,0.425,0.425,0.424,0.425,0.424,0.424,0.425,0.425,0.425,0.426,0.426,0.427,0.427,0.428,0.429,0.43,0.431,0.432,0.433,0.434,0.434,0.436,0.436,0.437,0.438,0.438,0.439,0.439,0.44,0.44,0.44,0.441,0.441,0.442,0.442,0.443,0.443,0.444,0.445,0.445,0.446,0.446,0.447,0.447,0.447,0.447,0.447,0.447,0.447,0.447,0.447,0.447,0.447,0.448,0.448,0.448,0.448,0.448,0.449,0.449,0.45,0.45,0.45,0.45,0.451,0.452,0.453,0.453,0.454,0.455,0.456,0.457,0.458,0.459,0.459,0.459,0.46,0.46,0.46,0.46,0.461,0.461,0.462,0.462,0.462,0.462,0.462,0.463,0.463,0.463,0.463,0.464,0.464,0.464,0.464,0.464,0.464,0.464,0.464,0.464,0.465,0.465,0.465,0.465,0.465,0.466,0.466,0.466,0.466,0.466,0.467,0.467,0.467,0.467,0.468,0.468,0.468,0.468,0.469,0.469,0.47,0.47,0.471,0.471,0.472,0.473,0.473,0.474,0.475,0.476,0.476,0.477,0.478,0.478,0.479,0.48,0.481,0.482,0.482,0.484,0.484,0.485,0.485,0.485,0.485,0.485,0.484,0.483,0.482,0.481,0.481,0.48,0.48,0.48,0.48,0.481,0.481,0.482,0.482,0.483,0.483,0.484,0.484,0.485,0.485,0.486,0.486,0.487,0.487,0.488,0.488,0.488,0.488,0.488,0.488,0.489,0.489,0.489,0.489,0.489,0.489,0.489,0.49,0.49,0.49,0.49,0.49,0.489,0.489,0.489,0.489,0.488,0.489,0.488,0.488,0.488,0.488,0.489,0.489,0.489,0.49,0.49,0.49,0.492,0.494,0.497,0.499,0.502,0.504,0.506,0.509,0.51,0.51,0.51,0.51,0.511,0.511,0.512,0.512,0.513,0.514,0.514,0.515,0.516,0.517,0.518,0.519,0.521,0.522,0.523,0.525,0.527,0.528,0.53,0.532,0.533,0.534,0.536,0.537,0.537,0.538,0.539,0.54,0.54,0.541,0.541,0.541,0.541,0.541,0.541,0.541,0.541,0.541,0.541,0,0.541,0,0,0,0,0,0,0,0,0.691,0.693,0.693,0.694,0.695,0.695,0.696,0.697,0.698,0.699,0.701,0.702,0.703,0.705,0.706,0.708,0.709,0.711,0.713,0.714,0.716,0.717,0.719,0.72,0.722,0.723,0.724,0.725,0.726,0.727,0.727,0.728,0.729,0.73,0.731,0.731,0.733,0.735,0.736,0.738,0.739,0.741,0.742,0.744,0.746,0.747,0.749,0.75,0.752,0.753,0.755,0.756,0.757,0.76,0.761,0.763,0.765,0.766,0.769,0.771,0.772,0.773,0.774,0.776,0.777,0.778,0.779,0.78,0.781,0.782,0.784,0.785,0.787,0.788,0.789,0.79,0.793,0.794,0.796,0.798,0.798,0.8,0.8,0.801,0.802,0.804,0.805,0.807,0.809,0.811,0.814,0,0.819,0.82,0,0,0,0.824,0.825,0.825,0.826,0.825,0.821,0.818,0,0,0,0,0,0,0,0,0,0,0,0,0,0.782,0.782,0.782,0.782,0.782,0.782,0.782,0.783,0.783,0.782,0.781,0.78,0.78,0.783,0,0,0,0,0,0,0,0,0,0,0,0,0,0,0,0,0,1.064,1.064,1.064,1.064,1.064,1.064,1.063,1.063,1.062,1.06,1.059,1.057,1.056,1.055,1.054,1.053,1.052,1.052,1.051,1.051,1.052,1.052,1.051,1.051,1.051,1.05,1.049,1.049,1.047,1.047,1.047,1.047,1.047,1.047,1.048,1.048,1.048,1.048,1.047,1.047,1.046,1.046,1.046,1.047,1.047,1.047,1.047,1.047,1.047,1.048,1.048,1.049,1.049,1.049,1.049
0,0,0,0,0,0,0,0,0,0,0,0,0,0,0,0,0,0,0,0,0,0,0,0,0,0.474,0.473,0.473,0.472,0.472,0.471,0.47,0.469,0.468,0.467,0.465,0.464,0.462,0.46,0.458,0.456,0.454,0.453,0.451,0.449,0.448,0.447,0.445,0.444,0.443,0.442,0.441,0.44,0.439,0.438,0.438,0.437,0.436,0.436,0.435,0.435,0.434,0.433,0.433,0.432,0.431,0.43,0.429,0.429,0.428,0.427,0.427,0.427,0.426,0.426,0.426,0.426,0.426,0.426,0.425,0.425,0.426,0.426,0.426,0.426,0.427,0.427,0.428,0.428,0.429,0.43,0.431,0.432,0.433,0.434,0.434,0.435,0.436,0.437,0.437,0.438,0.439,0.439,0.44,0.44,0.44,0.441,0.441,0.442,0.442,0.443,0.443,0.444,0.445,0.445,0.446,0.447,0.447,0.447,0.448,0.448,0.448,0.448,0.448,0.448,0.448,0.448,0.447,0.448,0.448,0.448,0.448,0.448,0.448,0.448,0.449,0.449,0.449,0.45,0.45,0.45,0.451,0.452,0.452,0.453,0.453,0.455,0.456,0.457,0.458,0.459,0.459,0.46,0.46,0.46,0.461,0.461,0.461,0.461,0.462,0.462,0.462,0.463,0.463,0.463,0.463,0.464,0.464,0.464,0.464,0.464,0.464,0.465,0.465,0.465,0.465,0.465,0.465,0.465,0.465,0.466,0.466,0.466,0.466,0.466,0.467,0.467,0.467,0.467,0.468,0.468,0.468,0.468,0.469,0.469,0.469,0.47,0.47,0.471,0.472,0.473,0.473,0.474,0.475,0.475,0.476,0.477,0.478,0.478,0.479,0.48,0.481,0.482,0.483,0.484,0.485,0.486,0.486,0.487,0.487,0.486,0.486,0.485,0.484,0.483,0.482,0.481,0.481,0.48,0.48,0.481,0.481,0.482,0.482,0.483,0.484,0.484,0.485,0.485,0.485,0.486,0.487,0.487,0.488,0.488,0.489,0.489,0.489,0.489,0.489,0.489,0.489,0.489,0.49,0.49,0.49,0.491,0.491,0.491,0.492,0.492,0.492,0.492,0.491,0.491,0.491,0.49,0.49,0.49,0.49,0.49,0.49,0.49,0.49,0.491,0.491,0.491,0.492,0.493,0.494,0.496,0.499,0.501,0.503,0.505,0.507,0.509,0.51,0.511,0.511,0.511,0.512,0.512,0.512,0.513,0.513,0.514,0.515,0.516,0.517,0.518,0.519,0.52,0.522,0.523,0.524,0.526,0.528,0.529,0.531,0.533,0.534,0.535,0.537,0.538,0.538,0.539,0.54,0.541,0.541,0.541,0.541,0.541,0.542,0.542,0.542,0.542,0.542,0.541,0,0,0,0,0,0,0,0,0,0,0,0.692,0.694,0.694,0.695,0.695,0.696,0.697,0.698,0.698,0.7,0.701,0.703,0.704,0.706,0.708,0.709,0.711,0.712,0.714,0.715,0.717,0.718,0.72,0.721,0.723,0.724,0.725,0.726,0.727,0.728,0.729,0.73,0.731,0.731,0.732,0.734,0.735,0.737,0.739,0.74,0.742,0.744,0.745,0.746,0.748,0.749,0.751,0.752,0.754,0.756,0.757,0.758,0.76,0.761,0.763,0.764,0.766,0.767,0.769,0.771,0.772,0.774,0.775,0.776,0.777,0.778,0.779,0.78,0.782,0.784,0.785,0.787,0.788,0.789,0.791,0.792,0.794,0.796,0.797,0.798,0.8,0.8,0.801,0.802,0.804,0.805,0.807,0.808,0.81,0.812,0.815,0.817,0.818,0.821,0.822,0.822,0.823,0.824,0.825,0.825,0.826,0.825,0.825,0.824,0.823,0.82,0.817,0.815,0.812,0,0,0,0.804,0.801,0,0,0,0.794,0.792,0.792,0.79,0.789,0.788,0.788,0.787,0.786,0.784,0.783,0.78,0.781,0.784,0,0,0,0,0,0,0,0,0,0,0,0,0,0,0,0,0,0,0,1.064,1.063,1.063,1.062,1.062,1.062,1.06,1.059,1.058,1.057,1.056,1.055,1.055,1.054,1.053,1.053,1.052,1.053,1.053,1.053,1.053,1.052,1.051,1.051,1.05,1.049,1.049,1.048,1.048,1.048,1.048,1.048,1.048,1.048,1.048,1.048,1.047,1.047,1.046,1.046,1.046,1.047,1.047,1.047,1.047,1.048,1.048,1.049,1.049,1.049,1.049,1.049,1.05
0,0,0,0,0,0,0,0,0,0,0,0,0,0,0,0,0,0,0,0,0,0,0,0.474,0.474,0.473,0.473,0.473,0.472,0.471,0.471,0.47,0.469,0.468,0.467,0.466,0.464,0.463,0.461,0.459,0.457,0,0.453,0.452,0.45,0.448,0.447,0.446,0.444,0.443,0.442,0.441,0.44,0.439,0.439,0.438,0.437,0.436,0.436,0.436,0.435,0.434,0.434,0.433,0.432,0.431,0.431,0.43,0.429,0.429,0.428,0.428,0.427,0.427,0.427,0.427,0.427,0.427,0.426,0.426,0.426,0.427,0.427,0.427,0.427,0.428,0.428,0.429,0.43,0.43,0.431,0.432,0.433,0.433,0.434,0.435,0.436,0.436,0.437,0.438,0.438,0.439,0.439,0.44,0.44,0.441,0.441,0.442,0.442,0.443,0.443,0.444,0.445,0.445,0.446,0.446,0.447,0.447,0.448,0.448,0.448,0.448,0.448,0.448,0.448,0.448,0.448,0.448,0.448,0.448,0.448,0.448,0.448,0.448,0.448,0.449,0.449,0.449,0.449,0.449,0.45,0.45,0.451,0.451,0.452,0.452,0.454,0.455,0.456,0.457,0.458,0.459,0.459,0.46,0.46,0.46,0.461,0.461,0.461,0.462,0.462,0.462,0.463,0.463,0.463,0.464,0.464,0.464,0.464,0.464,0.465,0.465,0.465,0.465,0.465,0.465,0.465,0.465,0.466,0.466,0.466,0.466,0.466,0.467,0.467,0.467,0.467,0.467,0.468,0.468,0.468,0.468,0.468,0.469,0.469,0.47,0.47,0.471,0.471,0.472,0.473,0.474,0.474,0.475,0.476,0.477,0.478,0.479,0.479,0.48,0.481,0.482,0.483,0.484,0.485,0.486,0.487,0.488,0.488,0.488,0.487,0.486,0.485,0.484,0.483,0.482,0.481,0.481,0.481,0.481,0.481,0.482,0.482,0.483,0.484,0.485,0.485,0.486,0.486,0.486,0.487,0.488,0.488,0.489,0.489,0.49,0.49,0.49,0.49,0.49,0.49,0.491,0.491,0.491,0.491,0.492,0.492,0.493,0.493,0.493,0.493,0.493,0.493,0.493,0.493,0.492,0.492,0.492,0.492,0.492,0.492,0.492,0.492,0.492,0.492,0.493,0.493,0.494,0.495,0.496,0.499,0.501,0.503,0.505,0.507,0.509,0.51,0.511,0.511,0.511,0.512,0.512,0.513,0.513,0.514,0.514,0.515,0.516,0.517,0.518,0.519,0.52,0.521,0.522,0.524,0.525,0.527,0.529,0.53,0.532,0.534,0.535,0.536,0.537,0.538,0.539,0.54,0.541,0.541,0.542,0.542,0.542,0.542,0.543,0.543,0.543,0.543,0.543,0.543,0,0,0,0,0,0,0,0,0,0,0,0.693,0.694,0.695,0.696,0.696,0.697,0.697,0.698,0.7,0.701,0.702,0.704,0.705,0.707,0.709,0.71,0.712,0.714,0.715,0.717,0.718,0.719,0.721,0.722,0.723,0.725,0.726,0.727,0.728,0.729,0.73,0.731,0.731,0.732,0.734,0.735,0.737,0.739,0.741,0.743,0.744,0.746,0.747,0.748,0.75,0.751,0.753,0.754,0.756,0.757,0.759,0.76,0.762,0.763,0.764,0.766,0.767,0.769,0.77,0.772,0.773,0.774,0.775,0.777,0.778,0.779,0.78,0.782,0.783,0.784,0.786,0.788,0.789,0.79,0.792,0.793,0.795,0.797,0.798,0.798,0.8,0.801,0.802,0.804,0.805,0.806,0.808,0.809,0.811,0.814,0.815,0.817,0.819,0.821,0.822,0.823,0.824,0.825,0.825,0.826,0.827,0.826,0.826,0.827,0.827,0.825,0.824,0.823,0.822,0.82,0.819,0.817,0.816,0.813,0.811,0,0.807,0.804,0.803,0.801,0.8,0.797,0.796,0.794,0.793,0.79,0.788,0,0.784,0.785,0,0,0,0,0,0,0,0,0,0,0,0,0,0,0,0,0,0,0,1.06,1.06,1.06,1.06,1.06,1.06,1.06,1.059,1.059,1.058,1.057,1.057,1.056,1.056,1.055,1.055,1.054,1.054,1.054,1.054,1.054,1.054,1.053,1.052,1.052,1.051,1.05,1.05,1.049,1.049,1.048,1.049,1.049,1.049,1.049,1.048,1.048,1.048,1.047,1.047,1.046,1.047,1.047,1.047,1.047,1.048,1.049,1.049,1.049,1.049,1.05,1.05,1.05,1.051
0,0,0,0,0,0,0,0,0,0,0,0,0,0,0,0,0,0,0,0,0,0,0,0.475,0.474,0.474,0.473,0.473,0.473,0.472,0.471,0.47,0.469,0.468,0.467,0.466,0.465,0.463,0.462,0.46,0.458,0,0.454,0.453,0.45,0.448,0.447,0.446,0.445,0.443,0.442,0.441,0.44,0.439,0.439,0.438,0.438,0.437,0.436,0.436,0.435,0.435,0.434,0.433,0.433,0.432,0.431,0.43,0.43,0.429,0.429,0.428,0.428,0.428,0.428,0.428,0.427,0.427,0.427,0.427,0.427,0.427,0.428,0.428,0.428,0.429,0.429,0.43,0.43,0.431,0.432,0.432,0.433,0.434,0.435,0.435,0.436,0.436,0.437,0.438,0.438,0.439,0.439,0.44,0.44,0.441,0.441,0.442,0.442,0.443,0.444,0.444,0.445,0.446,0.446,0.447,0.447,0.448,0.448,0.448,0.448,0.448,0.448,0.448,0.448,0.448,0.448,0.448,0.448,0.448,0.448,0.448,0.448,0.448,0.448,0.448,0.449,0.449,0.449,0.449,0.449,0.45,0.45,0.45,0.45,0.451,0.453,0.454,0.456,0.457,0.457,0.458,0.459,0.46,0.46,0.46,0.461,0.461,0.461,0.462,0.462,0.463,0.463,0.463,0.464,0.464,0.464,0.465,0.465,0.465,0.465,0.465,0.465,0.465,0.465,0.465,0.466,0.466,0.466,0.466,0.466,0.466,0.467,0.467,0.467,0.467,0.467,0.468,0.468,0.468,0.468,0.469,0.469,0.469,0.469,0.47,0.47,0.471,0.472,0.472,0.473,0.474,0.475,0.475,0.476,0.477,0.478,0.479,0.48,0.48,0.481,0.483,0.484,0.485,0.486,0,0.489,0.489,0.489,0.489,0.488,0.487,0.486,0.485,0.483,0.482,0.481,0.481,0.481,0.481,0.482,0.483,0.484,0.484,0.485,0.486,0.487,0.487,0.488,0.488,0.489,0.489,0.49,0.49,0.491,0.491,0.491,0.491,0.491,0.491,0.492,0.492,0.492,0.493,0.493,0.493,0.494,0.495,0.495,0.495,0.495,0.495,0.495,0.495,0.494,0.494,0.494,0.493,0.493,0.493,0.493,0.493,0.493,0.493,0.494,0.494,0.495,0.496,0.497,0.499,0.501,0.503,0,0.506,0.508,0.51,0.51,0.511,0.512,0.512,0.512,0.513,0.513,0.514,0.514,0.515,0.516,0.517,0.518,0.519,0.52,0.521,0.522,0.523,0.525,0.526,0.528,0.53,0.532,0.533,0.535,0.536,0.537,0.538,0.539,0.54,0.541,0.541,0.542,0.542,0.543,0.543,0.543,0.544,0.544,0.544,0.545,0.544,0.544,0,0,0,0,0,0,0,0,0,0.693,0.693,0.693,0.695,0.696,0.696,0.697,0.698,0.698,0.699,0.701,0.702,0.703,0.705,0.707,0.709,0.71,0.712,0.714,0.715,0.717,0.718,0.719,0.721,0.722,0.723,0.724,0.726,0.727,0.728,0.729,0.73,0.731,0.731,0.733,0.734,0.736,0.737,0.739,0.741,0.743,0.745,0.746,0.748,0.749,0.75,0.751,0.753,0.754,0.756,0.757,0.759,0.76,0.762,0.763,0.764,0.766,0.767,0.767,0.77,0.771,0.772,0.773,0.774,0.776,0.777,0.778,0.779,0.78,0.782,0.784,0.785,0.787,0.789,0.79,0.792,0.793,0.794,0.796,0.797,0.798,0.8,0.801,0.802,0.804,0.805,0.807,0.808,0.81,0.811,0.812,0.814,0.816,0.817,0.82,0.821,0.822,0.823,0.824,0.825,0.826,0.826,0.827,0.828,0.829,0.83,0.83,0.829,0.829,0.829,0.829,0.828,0.829,0.826,0.826,0.824,0.822,0.82,0.818,0.815,0.814,0.811,0.809,0.806,0.804,0.804,0.802,0,0,0,0,0.802,0,0,0,0,0,0,0,0,0,0,0,0,0,0,0,0,0,0,0,0,1.058,1.058,1.059,1.058,1.058,1.059,1.058,1.058,1.058,1.057,1.057,1.057,1.057,1.057,1.056,1.055,1.055,1.055,1.055,1.055,1.054,1.053,1.053,1.052,1.051,1.051,1.05,1.05,1.049,1.049,1.049,1.049,1.049,1.049,1.049,1.048,1.048,1.048,1.048,1.047,1.047,1.048,1.048,1.048,1.049,1.049,1.049,1.05,1.05,1.051,1.051,1.051,1.051
0,0,0,0,0,0,0,0,0,0,0,0,0,0,0,0,0,0,0,0,0,0,0,0.475,0.474,0.474,0.473,0.473,0.472,0.472,0.471,0.47,0.469,0.468,0.467,0.466,0.465,0.464,0.462,0.461,0.459,0,0.455,0.453,0.451,0.449,0.447,0,0.445,0.443,0.442,0.441,0.44,0.439,0.439,0.438,0.438,0.437,0.437,0.436,0.435,0.435,0.434,0.434,0.433,0.432,0.432,0.431,0.43,0.43,0.429,0.429,0.429,0.429,0.429,0.428,0.428,0.428,0.428,0.428,0.428,0.428,0.429,0.429,0.429,0.43,0.43,0.431,0.431,0.432,0.432,0.433,0.434,0.434,0.435,0.435,0.436,0.437,0.437,0.438,0.439,0.439,0.44,0.44,0.441,0.441,0.442,0.442,0.443,0.443,0.444,0.445,0.445,0.446,0.446,0.447,0.447,0.448,0.448,0.448,0.448,0.448,0.448,0.448,0.448,0.448,0.448,0.448,0.448,0.448,0.448,0.448,0.448,0.448,0.448,0.449,0.449,0.449,0.449,0.449,0.449,0.449,0.449,0.45,0.45,0.451,0.452,0.453,0.455,0.456,0.457,0.458,0.459,0.46,0.46,0.46,0.461,0.461,0.461,0.462,0.462,0.463,0.463,0.464,0.464,0.464,0.465,0.465,0.465,0.465,0.465,0.465,0.466,0.466,0.466,0.466,0.466,0.466,0.466,0.467,0.467,0.467,0.467,0.467,0.467,0.468,0.468,0.468,0.468,0.468,0.469,0.469,0.469,0.469,0.47,0.47,0.471,0.471,0.472,0.473,0.474,0.474,0.475,0.476,0.477,0.477,0.479,0.479,0.48,0.481,0.482,0.484,0.485,0.487,0.488,0.489,0.49,0.491,0.49,0.49,0.489,0.488,0.486,0.485,0.484,0.482,0.482,0.481,0.481,0.482,0.483,0.484,0.485,0.486,0.486,0.488,0.488,0.489,0.489,0.49,0.49,0.491,0.491,0.492,0.492,0.492,0.493,0.492,0.493,0.493,0.493,0.493,0.494,0.494,0.495,0.495,0.496,0.496,0.496,0.497,0.497,0.497,0.497,0.497,0.496,0.496,0.495,0.495,0.495,0.495,0.495,0.494,0.495,0.495,0.496,0.497,0.497,0.498,0.499,0.501,0.503,0.505,0.506,0.508,0.51,0.511,0.512,0.512,0.513,0.513,0.513,0.514,0.514,0.514,0.515,0.516,0.517,0.517,0.518,0.519,0.521,0.522,0.523,0.525,0.526,0.528,0.529,0.531,0.532,0.534,0.535,0.537,0.538,0.539,0.54,0.541,0.542,0.542,0.543,0.543,0.543,0.544,0.544,0.545,0.545,0.545,0,0,0,0,0,0,0,0,0,0,0,0,0.693,0.693,0.694,0.696,0.696,0.697,0.697,0.698,0.7,0.701,0.702,0.703,0.705,0.707,0.708,0.71,0.712,0.714,0.715,0.717,0.718,0.72,0.721,0.721,0.723,0.724,0.725,0.726,0.728,0.729,0.73,0.731,0.732,0.733,0.734,0.736,0.737,0.739,0.741,0.743,0.745,0.747,0.748,0.75,0.751,0.752,0.753,0.754,0.756,0.757,0.759,0.76,0.761,0.763,0.764,0.765,0.766,0.767,0.769,0.77,0.772,0.773,0.774,0.775,0.776,0.777,0.778,0.78,0.781,0.782,0.784,0.786,0.788,0.789,0.791,0.792,0.794,0.795,0.796,0.798,0.799,0.801,0.802,0.804,0.805,0.806,0.808,0.81,0.811,0.812,0.814,0.815,0.817,0.818,0.82,0.822,0.822,0.823,0.824,0.825,0.825,0.826,0.827,0.828,0.829,0.83,0.83,0.83,0.831,0.832,0.832,0.833,0.834,0.834,0.836,0.834,0.832,0.831,0.828,0.826,0,0,0.818,0.815,0.814,0.815,0.814,0,0,0,0,0,0,0,0,0,0,0,0,0,0,0,0,0,0,0,0,0,0,0,0,1.056,1.057,1.058,1.058,1.058,1.058,1.058,1.059,1.059,1.058,1.058,1.058,1.058,1.058,1.057,1.057,1.056,1.056,1.055,1.055,1.055,1.054,1.054,1.053,1.053,1.052,1.052,1.051,1.051,1.05,1.05,1.05,1.05,1.05,1.049,1.049,1.049,1.049,1.048,1.048,1.048,1.048,1.049,1.049,1.049,1.05,1.05,1.051,1.051,1.051,1.051,1.051,1.052,1.052
0,0,0,0,0,0,0,0,0,0,0,0,0,0,0,0,0,0,0,0,0,0,0,0.474,0.474,0.474,0.473,0.473,0.473,0.472,0.471,0.47,0.469,0.468,0.467,0.466,0.465,0.464,0.463,0.461,0.459,0,0,0.453,0.451,0.449,0.447,0,0.445,0.443,0.442,0.441,0.441,0.44,0.439,0.439,0.438,0.437,0.437,0.436,0.436,0.435,0.434,0.434,0.433,0.433,0.432,0.432,0.431,0.43,0.43,0.43,0.43,0.429,0.429,0.429,0.429,0.429,0.429,0.429,0.429,0.429,0.429,0.43,0.43,0.43,0.431,0.431,0.432,0.433,0.433,0.434,0.434,0.435,0.435,0.436,0.437,0.437,0.438,0.438,0.439,0.439,0.44,0.44,0.441,0.441,0.442,0.442,0.443,0.443,0.444,0.445,0.445,0.446,0.446,0.447,0.447,0.448,0.448,0.448,0.448,0.448,0.448,0.448,0.448,0.448,0.448,0.448,0.448,0.448,0.448,0.448,0.448,0.448,0.448,0.448,0.448,0.449,0.449,0.449,0.449,0.449,0.449,0.449,0.449,0.45,0.451,0.453,0.454,0.455,0.456,0.458,0.459,0.46,0.46,0.46,0.461,0.461,0.462,0.462,0.463,0.463,0.464,0.464,0.465,0.465,0.465,0.465,0.465,0.466,0.466,0.466,0.466,0.466,0.466,0.466,0.466,0.467,0.467,0.467,0.467,0.467,0.468,0.468,0.468,0.468,0.468,0.468,0.469,0.469,0.469,0.469,0.469,0.47,0.47,0.471,0.471,0.472,0.472,0.473,0.474,0.475,0.476,0.476,0.477,0.478,0.479,0.48,0.481,0.481,0.483,0.484,0.486,0.488,0.489,0.49,0.491,0.491,0.491,0.49,0.489,0.488,0.486,0.485,0.484,0.483,0.482,0.482,0.482,0.483,0.484,0.485,0.486,0.487,0.488,0.489,0.49,0.491,0.491,0.491,0.492,0.492,0.493,0.493,0.493,0.493,0.494,0.494,0.494,0.494,0.495,0.495,0.495,0.496,0.496,0.497,0.497,0.498,0.498,0.498,0.498,0.498,0.498,0.498,0.498,0.498,0.497,0.497,0.497,0.497,0.496,0.496,0.497,0.497,0.498,0.499,0.5,0.501,0.502,0.504,0.506,0.507,0.509,0.51,0.512,0.513,0.513,0.514,0.514,0.514,0.514,0.514,0.515,0.515,0.516,0.517,0.518,0.518,0.519,0.52,0.522,0.523,0.524,0.526,0.527,0.529,0.53,0.532,0.533,0.535,0.536,0.538,0.539,0.54,0.541,0.542,0.542,0.543,0.544,0.544,0.544,0.544,0.545,0.545,0.546,0,0.546,0,0,0,0,0,0,0,0,0,0,0,0.694,0.695,0.695,0.697,0.697,0.698,0.699,0.7,0.701,0.702,0.703,0.705,0.706,0.708,0.71,0.712,0.714,0.715,0.717,0.719,0.72,0.721,0.722,0.723,0.724,0.725,0.726,0.727,0.729,0.73,0.731,0.732,0.733,0.735,0.736,0.738,0.74,0.741,0.743,0.745,0.747,0.749,0.75,0.751,0.752,0.754,0.754,0.756,0.757,0.758,0.759,0.761,0.762,0.763,0.765,0.766,0.767,0.768,0.77,0.771,0.772,0.773,0.774,0.776,0.777,0.778,0.779,0.78,0.782,0.783,0.785,0.787,0.789,0.79,0.792,0.793,0.794,0.796,0.797,0.798,0.8,0.801,0.802,0.804,0.806,0.808,0.81,0.811,0.812,0.814,0.815,0.817,0.818,0.819,0.82,0.822,0.822,0.823,0.824,0.825,0.825,0.826,0.827,0.828,0.828,0.83,0.83,0.831,0.831,0.832,0.833,0.833,0.834,0.835,0.836,0.836,0.835,0.835,0.834,0.833,0.831,0.83,0.828,0.828,0.828,0.831,0,0,0,0,0,0,0,0,0,0,0,0,0,0,0,0,0,0,0,0,0,0,0,0,0,1.055,1.057,1.057,1.057,1.058,1.057,1.058,1.059,1.059,1.059,1.059,1.059,1.059,1.059,1.059,1.058,1.057,1.057,1.056,1.055,1.055,1.055,1.054,1.054,1.053,1.053,1.053,1.052,1.052,1.051,1.051,1.051,1.051,1.051,1.05,1.05,1.049,1.049,1.049,1.049,1.049,1.049,1.049,1.05,1.051,1.051,1.051,1.052,1.052,1.052,1.052,1.053,1.053,1.053
0,0,0,0,0,0,0,0,0,0,0,0,0,0,0,0,0,0,0,0,0,0,0,0.474,0.474,0.474,0.473,0.473,0.473,0.472,0.471,0.47,0.469,0.468,0.467,0.466,0.465,0.464,0.463,0.462,0.46,0.458,0,0.454,0.452,0.449,0.448,0,0.445,0.444,0.442,0.441,0.441,0.44,0.439,0.439,0.438,0.437,0.437,0.436,0.436,0.435,0.435,0.434,0.434,0.433,0.433,0.432,0.432,0.431,0.431,0.43,0.43,0.43,0.43,0.43,0.43,0.43,0.43,0.43,0.43,0.43,0.43,0.43,0.431,0.431,0.432,0.432,0.433,0.433,0.434,0.434,0.435,0.435,0.436,0.436,0.437,0.438,0.438,0.439,0.439,0.44,0.44,0.441,0.441,0.442,0.442,0.443,0.443,0.444,0.444,0.445,0.445,0.446,0.446,0.447,0.447,0.448,0.448,0.448,0.448,0.448,0.448,0.448,0.448,0.448,0.448,0.448,0.448,0.448,0.448,0.448,0.448,0.448,0.448,0.448,0.448,0.448,0.448,0.448,0.449,0.449,0.449,0.449,0.449,0.449,0.45,0.452,0.453,0.454,0.455,0.457,0.458,0.459,0.46,0.46,0.46,0.461,0.462,0.462,0.463,0.463,0.464,0.464,0.465,0.465,0.466,0.466,0.466,0.466,0.466,0.466,0.466,0.466,0.467,0.467,0.467,0.467,0.467,0.467,0.468,0.468,0.468,0.468,0.468,0.469,0.469,0.469,0.469,0.469,0.469,0.47,0.47,0.47,0.471,0.471,0.472,0.472,0.473,0.473,0.474,0.475,0.476,0.477,0.477,0.478,0.479,0.48,0.481,0.482,0.483,0.485,0.487,0.489,0.49,0.491,0.492,0.492,0.492,0.49,0.489,0.488,0.486,0.485,0.484,0.482,0.482,0.482,0.483,0.484,0.485,0.486,0.488,0.489,0.49,0.491,0.492,0.492,0.493,0.493,0.493,0.494,0.494,0.495,0.495,0.495,0.495,0.495,0.495,0.496,0.496,0.497,0.497,0.497,0.498,0.499,0,0.5,0.5,0.5,0.5,0.5,0.5,0.5,0.499,0.499,0.499,0.499,0.499,0.498,0.498,0.498,0.499,0.499,0.5,0.501,0.502,0.503,0.505,0.506,0.508,0.51,0.511,0.512,0.513,0.514,0.514,0.515,0.515,0.515,0.515,0.515,0.516,0.516,0.517,0.518,0.518,0.519,0.52,0.521,0.522,0.523,0.525,0.526,0.528,0.529,0.531,0.533,0.534,0.536,0.537,0.539,0.54,0.541,0.542,0.542,0.543,0.544,0.544,0.545,0.545,0.545,0.546,0.546,0.546,0,0.547,0.548,0.548,0,0,0,0,0,0,0,0,0.692,0,0.694,0.696,0.697,0.698,0.699,0.7,0.701,0.702,0.703,0.705,0.706,0.708,0.709,0.711,0.713,0.715,0.717,0.718,0.72,0.721,0.722,0.723,0.724,0.725,0.726,0.727,0.728,0.73,0.731,0.732,0.733,0.735,0.736,0.738,0.74,0.742,0.744,0.746,0.747,0.749,0.751,0.752,0.753,0.754,0.755,0.756,0.757,0.758,0.759,0.76,0.761,0.762,0.764,0.765,0.766,0.767,0.769,0.77,0.771,0.773,0.774,0.775,0.776,0.777,0.778,0.779,0.78,0.782,0.784,0.786,0.788,0.79,0.792,0.793,0.794,0.796,0.797,0.798,0.799,0.801,0.802,0.804,0.805,0.807,0,0.811,0.813,0.814,0.815,0.817,0.817,0.818,0.82,0.821,0.822,0.823,0.823,0.824,0.825,0.826,0.826,0.828,0.828,0.829,0.83,0.831,0.831,0.832,0.833,0.833,0.834,0.834,0.836,0.837,0.838,0.838,0.84,0.839,0.839,0.84,0.84,0.84,0.841,0.844,0.847,0.848,0,0,0,0,0,0,0,0,0,0,0,0,0,0,0,0,0,0,0,0,0,0,0,0,0,0,1.056,1.056,1.057,1.057,1.058,1.059,1.059,1.059,1.06,1.06,1.06,1.06,1.06,1.059,1.058,1.057,1.056,1.056,1.055,1.055,1.054,1.054,1.054,1.053,1.053,1.053,1.053,1.053,1.052,1.052,1.052,1.052,1.052,1.051,1.051,1.051,1.051,1.051,1.051,1.051,1.051,1.051,1.052,1.052,1.053,1.053,1.053,1.053,1.053,1.053,1.054,1.054
0,0,0,0,0,0,0,0,0,0,0,0,0,0,0,0,0,0,0,0,0,0,0,0.474,0.474,0.473,0.473,0.473,0.472,0.472,0.471,0.47,0.469,0.468,0.467,0.466,0.465,0.464,0.463,0.462,0.46,0.458,0.456,0.455,0.452,0.45,0.448,0,0.445,0.444,0.443,0.442,0.441,0.44,0.439,0.439,0.438,0.438,0.437,0.436,0.436,0.435,0.435,0.434,0.434,0.433,0.433,0.432,0.432,0.432,0.431,0.431,0.431,0.431,0.431,0.431,0.43,0.43,0.43,0.43,0.431,0.431,0.431,0.431,0.432,0.432,0.432,0.433,0.433,0.434,0.434,0.435,0.435,0.436,0.436,0.437,0.438,0.438,0.439,0.439,0.44,0.44,0.441,0.441,0.442,0.442,0.442,0.443,0.443,0.444,0.444,0.445,0.445,0.446,0.446,0.446,0.447,0.447,0.447,0.448,0.448,0.448,0.448,0.448,0.448,0.448,0.448,0.448,0.448,0.448,0.448,0.448,0.448,0.448,0.448,0.448,0.448,0.448,0.448,0.448,0.448,0.449,0.449,0.449,0.449,0.449,0.45,0.451,0.453,0.454,0.455,0.456,0.457,0.459,0.459,0.459,0.46,0.461,0.462,0.462,0.463,0.463,0.464,0.465,0.465,0.466,0.466,0.466,0.466,0.466,0.466,0.466,0.467,0.467,0.467,0.467,0.467,0.467,0.467,0.468,0.468,0.468,0.468,0.468,0.469,0.469,0.469,0.469,0.469,0.47,0.47,0.47,0.47,0.471,0.471,0.472,0.472,0.473,0.473,0.474,0.475,0.475,0.476,0.477,0.477,0.478,0.479,0.48,0.481,0.482,0.484,0.486,0.488,0.489,0.491,0.492,0.492,0.492,0.492,0.49,0.489,0.487,0.486,0.484,0.483,0.482,0.482,0.482,0.483,0.485,0.486,0.488,0.49,0.491,0.492,0.493,0.494,0.494,0.494,0.495,0.495,0.495,0.496,0.496,0.497,0.497,0.497,0.497,0.497,0.497,0.498,0.498,0.499,0.499,0.5,0.5,0.501,0.501,0.501,0.501,0.501,0.501,0.501,0.501,0.501,0.501,0.501,0.5,0.5,0.5,0.5,0.5,0.501,0.501,0.502,0.504,0.504,0.506,0.507,0.509,0.511,0.512,0.513,0.514,0.515,0.515,0.516,0.516,0.516,0.516,0.516,0.516,0.517,0.517,0.518,0.518,0.519,0.52,0.521,0.522,0.523,0.524,0.525,0.527,0.529,0.53,0.532,0.534,0.535,0.537,0.538,0.54,0.541,0.542,0.543,0.544,0.544,0.545,0.545,0.545,0.546,0.546,0.546,0.547,0.547,0.548,0.548,0.549,0,0,0,0,0,0,0,0,0,0,0.693,0.696,0.698,0.698,0.698,0.7,0.701,0.702,0.704,0.705,0.706,0.708,0.709,0.711,0.713,0.715,0.716,0.718,0.72,0.721,0.722,0.723,0.724,0.725,0.726,0.727,0.728,0.729,0.731,0.731,0.733,0.735,0.736,0.738,0.74,0.742,0.744,0.746,0.748,0.75,0.751,0.753,0.754,0.755,0.756,0.757,0.758,0.759,0.76,0.76,0.761,0.762,0.763,0.764,0.765,0.766,0.768,0.769,0.771,0.772,0.773,0.775,0.776,0.777,0.778,0.779,0.78,0.782,0.783,0.785,0.787,0.789,0.79,0.792,0.794,0.796,0.797,0.798,0.798,0.8,0.801,0.803,0.804,0.807,0.808,0.811,0.812,0.814,0.815,0.817,0.818,0.818,0.819,0.82,0.822,0.822,0.823,0.823,0.824,0.825,0.826,0.827,0.828,0.828,0.83,0.83,0.831,0.831,0.832,0.833,0.834,0.834,0.836,0.836,0.838,0.839,0.841,0.841,0.843,0.843,0.845,0.847,0.849,0.852,0.856,0.86,0,0.864,0.871,0.874,0,0.883,0.881,0,0,0,0,0,0,0,0,0,0,0,0,0,0,0,0,0,0,0,0,1.058,1.057,1.058,1.058,1.058,1.06,1.06,1.06,1.062,1.062,1.062,1.06,1.06,1.059,1.059,1.058,1.057,1.056,1.056,1.055,1.055,1.054,1.054,1.054,1.054,1.054,1.054,1.054,1.053,1.053,1.053,1.053,1.053,1.053,1.052,1.052,1.052,1.052,1.052,1.052,1.052,1.053,1.053,1.053,1.054,1.054,1.054,1.054,1.054,1.054,1.054,1.055
0,0,0,0,0,0,0,0,0,0,0,0,0,0,0,0,0,0,0,0,0,0,0,0.474,0.474,0.473,0.473,0.473,0.472,0.471,0.471,0.47,0.469,0.468,0.467,0.466,0.465,0.464,0.463,0.462,0.46,0.459,0,0.455,0.453,0.451,0.449,0,0.446,0.445,0.443,0.442,0.442,0.441,0.44,0.439,0.438,0.438,0.437,0.437,0.436,0.435,0.435,0.435,0.434,0.434,0.433,0.433,0.433,0.432,0.432,0.432,0.431,0.431,0.431,0.431,0.431,0.431,0.431,0.431,0.431,0.431,0.432,0.432,0.432,0.432,0.433,0.433,0.434,0.434,0.435,0.435,0.436,0.436,0.437,0.437,0.438,0.439,0.439,0.44,0.44,0.441,0.441,0.441,0.442,0.442,0.443,0.443,0.443,0.444,0.444,0.445,0.445,0.445,0.446,0.446,0.446,0.447,0.447,0.447,0.447,0.447,0.448,0.448,0.448,0.448,0.447,0.448,0.448,0.447,0.447,0.448,0.448,0.448,0.448,0.448,0.448,0.448,0.448,0.448,0.448,0.448,0.448,0.448,0.449,0.449,0.45,0.451,0.452,0.453,0.454,0.455,0.456,0.458,0.459,0.459,0.46,0.461,0.462,0.463,0.463,0.464,0.465,0.465,0.466,0.466,0.466,0.466,0.466,0.467,0.467,0.467,0.467,0.467,0.467,0.467,0.467,0.468,0.468,0.468,0.468,0.468,0.469,0.469,0.469,0.469,0.469,0.47,0.47,0.47,0.47,0.47,0.471,0.471,0.471,0.472,0.472,0.473,0.474,0.474,0.475,0.476,0.476,0.477,0.477,0.478,0.479,0.48,0.481,0.483,0.485,0.486,0.488,0.49,0.491,0.492,0.492,0.492,0.491,0.49,0.488,0.487,0.485,0.484,0.483,0.482,0.482,0.483,0.484,0.486,0.488,0.49,0.491,0.493,0.494,0.495,0.495,0.496,0.496,0.496,0.497,0.497,0.497,0.498,0.498,0.498,0.498,0.499,0.499,0.499,0.5,0.5,0.5,0.501,0.501,0.501,0.502,0.502,0.503,0.503,0.503,0.503,0.503,0.503,0.503,0.503,0.502,0.502,0.502,0.502,0.502,0.502,0.503,0.504,0.505,0.506,0.507,0.508,0.51,0.511,0.513,0.514,0.515,0.515,0.516,0.516,0.516,0.516,0.517,0.517,0.517,0.517,0.517,0.518,0.519,0.519,0.52,0.521,0.522,0.522,0.524,0.525,0.526,0.528,0.53,0.532,0.534,0.535,0.537,0.538,0.54,0.541,0.542,0.543,0.544,0.545,0.546,0.546,0.546,0.547,0.547,0.547,0.547,0.548,0.548,0,0.549,0,0,0,0,0,0,0,0,0,0,0.69,0.694,0.697,0.699,0.699,0.7,0.701,0.702,0.703,0.705,0.706,0.708,0.709,0.711,0.712,0.714,0.715,0.717,0.719,0.721,0.722,0.723,0.724,0.725,0.726,0.727,0.728,0.729,0.73,0.731,0.733,0.734,0.736,0.738,0.74,0.742,0.744,0.746,0.748,0.75,0.752,0.753,0.754,0.755,0.756,0.758,0.759,0.76,0.76,0.761,0.761,0.762,0.763,0.764,0.765,0.766,0.767,0.769,0.77,0.772,0.773,0.774,0.776,0.777,0.778,0.779,0.78,0.781,0.782,0.784,0.786,0.788,0.789,0.792,0.793,0.795,0.797,0.798,0.799,0.8,0.801,0.802,0.804,0.805,0.808,0.81,0.812,0.814,0.815,0.817,0.818,0.818,0.819,0.82,0.821,0.822,0.822,0.823,0.823,0.825,0.825,0.826,0.827,0.828,0.828,0.83,0.83,0.831,0.831,0.832,0.833,0.834,0.835,0.836,0.837,0.838,0.84,0.842,0.843,0.845,0.847,0.849,0.852,0.855,0.858,0.864,0.868,0,0.875,0.88,0.883,0.887,0,0,0,0,0,0,0,0,0,0,0,0,0,0,0,0,0,0,0,0,0,0,1.057,1.057,0,1.058,1.058,1.06,1.06,1.062,1.062,1.062,1.063,1.062,1.062,1.06,1.059,1.058,1.058,1.057,1.057,1.056,1.055,1.055,1.055,1.056,1.056,1.056,1.056,1.055,1.055,1.055,1.055,1.055,1.054,1.054,1.054,1.054,1.053,1.053,1.053,1.053,1.054,1.054,1.054,1.054,1.055,1.055,1.055,1.055,1.055,1.055,1.055,1.056
0,0,0,0,0,0,0,0,0,0,0,0,0,0,0,0,0,0,0,0,0,0,0,0.474,0.474,0.473,0.473,0.473,0.472,0.472,0.471,0.47,0.469,0.468,0.467,0.466,0.465,0.464,0.463,0.462,0.46,0.459,0,0.455,0.454,0.451,0.45,0.448,0,0.446,0.444,0.443,0.442,0.441,0.44,0.44,0.439,0.438,0.437,0.437,0.436,0.436,0.435,0.435,0.435,0.434,0.434,0.433,0.433,0.433,0.432,0.432,0.432,0.432,0.432,0.432,0.431,0.431,0.431,0.431,0.432,0.432,0.432,0.432,0.433,0.433,0.433,0.434,0.434,0.434,0.435,0.435,0.436,0.436,0.437,0.438,0.438,0.439,0.44,0.44,0.441,0.441,0.441,0.442,0.442,0.442,0.443,0.443,0.443,0.444,0.444,0.444,0.445,0.445,0.445,0.445,0.446,0.446,0.446,0.447,0.447,0.447,0.447,0.447,0.447,0.447,0.447,0.447,0.447,0.447,0.447,0.447,0.447,0.447,0.447,0.448,0.448,0.448,0.448,0.448,0.448,0.448,0.448,0.448,0.448,0.449,0.449,0.45,0.451,0.452,0,0.454,0.455,0.457,0.458,0.459,0.46,0.461,0.462,0.463,0.463,0.464,0.465,0.465,0.466,0.466,0.466,0.467,0.467,0.467,0.467,0.467,0.467,0.468,0.468,0.468,0.468,0.468,0.468,0.469,0.469,0.469,0.469,0.469,0.469,0.47,0.47,0.47,0.47,0.47,0.471,0.471,0.471,0.471,0.472,0.472,0.473,0.473,0.474,0.474,0.475,0.476,0.476,0.477,0.477,0.478,0.479,0.48,0.482,0.483,0.485,0.486,0.488,0.49,0.491,0.492,0.493,0.492,0.491,0.489,0.488,0.486,0.485,0.484,0.483,0.482,0.483,0.484,0.486,0.488,0.489,0.491,0.493,0.494,0.495,0.496,0.497,0.497,0.497,0.497,0.498,0.498,0.499,0.499,0.499,0.499,0.5,0.5,0.5,0.501,0.501,0.501,0.502,0.502,0.502,0.503,0.503,0.504,0.504,0.504,0.504,0.504,0.504,0.504,0.504,0.504,0.504,0.504,0.504,0.504,0.504,0.505,0.506,0.506,0.507,0.509,0.51,0.511,0.513,0.514,0.515,0.515,0.516,0.517,0.517,0.517,0.517,0.517,0.517,0.518,0.518,0.518,0.518,0.519,0.519,0.52,0.521,0.522,0.523,0.524,0.525,0.526,0.528,0.53,0.532,0.533,0.535,0.537,0.538,0.54,0.541,0.542,0.544,0.544,0.545,0.546,0.547,0.547,0.548,0.548,0.548,0.548,0.548,0.548,0.549,0,0,0,0,0,0,0,0,0,0,0,0,0,0.695,0.698,0.7,0.7,0.701,0.702,0.704,0.705,0.706,0.707,0.709,0.71,0.712,0.713,0.715,0.716,0.718,0.72,0.721,0.722,0.724,0.725,0.727,0.728,0.729,0.73,0.731,0.732,0.733,0.735,0.736,0.738,0.74,0.742,0.744,0.746,0.748,0.75,0.752,0.753,0.754,0.756,0.757,0.758,0.759,0.76,0.761,0.761,0.762,0.763,0.763,0.764,0.765,0.766,0.767,0.769,0.77,0.771,0.772,0.774,0.775,0.776,0.777,0.778,0.78,0.781,0.782,0.783,0.785,0.787,0.789,0.79,0.792,0.794,0.796,0.798,0.799,0.8,0.801,0.802,0.804,0.805,0.807,0.809,0.811,0.812,0.814,0.816,0.817,0.818,0.819,0.82,0.82,0.821,0.822,0.823,0.823,0.824,0.825,0.825,0.826,0.827,0.828,0.828,0.83,0.831,0.831,0.831,0.833,0.833,0.834,0.835,0.836,0.838,0.84,0.841,0.843,0.845,0.847,0.85,0.852,0.856,0.86,0.865,0.869,0.874,0.878,0.882,0.885,0.887,0.891,0,0,0,0,0,0,0,0,0,0,0,0,0,0,0,0,0,0,0,0,0,0,0,0,0,1.058,1.059,1.062,1.063,1.063,1.063,1.063,1.064,1.063,1.063,1.063,1.06,1.059,1.059,1.058,1.057,1.056,1.056,1.057,1.057,1.057,1.057,1.057,1.057,1.057,1.057,1.057,1.056,1.056,1.056,1.056,1.055,1.055,1.055,1.055,1.055,1.055,1.055,1.055,1.055,1.055,1.055,1.056,1.056,1.056,1.056,1.056,1.056,1.057
0,0,0,0,0,0,0,0,0,0,0,0,0,0,0,0,0,0,0,0,0,0,0,0,0,0.473,0.473,0.473,0.472,0.472,0.471,0.47,0.469,0.468,0.468,0.467,0.465,0.464,0.463,0.462,0.461,0.459,0.457,0,0.454,0.453,0.451,0.449,0.448,0.446,0.445,0.444,0.443,0.442,0.441,0.44,0.439,0.439,0.438,0.437,0.437,0.436,0.436,0.436,0.435,0.435,0.434,0.434,0.434,0.433,0.433,0.433,0.433,0.432,0.432,0.432,0.432,0.432,0.432,0.432,0.432,0.432,0.433,0.433,0.433,0.433,0.434,0.434,0.434,0.435,0.435,0.436,0.436,0.437,0.437,0.438,0.439,0.439,0.44,0.44,0.441,0.441,0.442,0.442,0.442,0.442,0.443,0.443,0.443,0.443,0.444,0.444,0.444,0.444,0.445,0.445,0.445,0.446,0.446,0.446,0.446,0.447,0.447,0.447,0.447,0.447,0.447,0.447,0.447,0.447,0.447,0.447,0.447,0.447,0.447,0.447,0.447,0.447,0.447,0.447,0.447,0.448,0.448,0.448,0.448,0.448,0.449,0.45,0.451,0.451,0.452,0.453,0.455,0.456,0.457,0.458,0.459,0.461,0.462,0.463,0.464,0.464,0.465,0.466,0.466,0.467,0.467,0.467,0.467,0.467,0.467,0.468,0.468,0.468,0.468,0.468,0.468,0.469,0.469,0.469,0.469,0.469,0.469,0.469,0.47,0.47,0.47,0.47,0.47,0.471,0.471,0.471,0.471,0.472,0.472,0.473,0.473,0.474,0.474,0.475,0.475,0.476,0.476,0.477,0.478,0.479,0.48,0.48,0.482,0.483,0.485,0.487,0.488,0.49,0.491,0.492,0.492,0.492,0.49,0.489,0.487,0.486,0.484,0.483,0.482,0.482,0.483,0.485,0.486,0.489,0.491,0.493,0.495,0.496,0.497,0.497,0.497,0.498,0.498,0.499,0.499,0.499,0.499,0.5,0.5,0.501,0.501,0.501,0.502,0.502,0.502,0.503,0.503,0.503,0.504,0.504,0.504,0.504,0.505,0.505,0.505,0.505,0.505,0.505,0.506,0.506,0.505,0.506,0.506,0.506,0.507,0.507,0.508,0.509,0.51,0.511,0.513,0.514,0.515,0.516,0.516,0.517,0.517,0.518,0.518,0.518,0.518,0.518,0.518,0.519,0.519,0.519,0.519,0.52,0.52,0.521,0.522,0.523,0.524,0.525,0.527,0.528,0.53,0.532,0.533,0.535,0.537,0.538,0.54,0.541,0.542,0.544,0.544,0.545,0.546,0.547,0.548,0.549,0.548,0.548,0.549,0.549,0.549,0,0.549,0,0,0,0,0,0,0,0.655,0.661,0.67,0.678,0,0.692,0,0.699,0.701,0.701,0.702,0.704,0.705,0.706,0.708,0.709,0.71,0.712,0.714,0.715,0.716,0.718,0.719,0.721,0.722,0.723,0.725,0.727,0.728,0.73,0.731,0.731,0.732,0.734,0.735,0.737,0.738,0.74,0.742,0.744,0.746,0.748,0.75,0.752,0.753,0.754,0.756,0.757,0.758,0.759,0.76,0.761,0.761,0.762,0.763,0.764,0.764,0.765,0.766,0.767,0.768,0.77,0.771,0.772,0.773,0.774,0.776,0.777,0.778,0.779,0.78,0.782,0.783,0.784,0.786,0.788,0.79,0.791,0.793,0.794,0.796,0.798,0.8,0.801,0.802,0.803,0.805,0.806,0.808,0.81,0.811,0.813,0.815,0.816,0.817,0.818,0.819,0.82,0.82,0.822,0.822,0.823,0.823,0.824,0.825,0.825,0.826,0.827,0.828,0.828,0.83,0.83,0.831,0.831,0.833,0.833,0.834,0.836,0.836,0.838,0.84,0.841,0.844,0.845,0.848,0.851,0.855,0.859,0.864,0.869,0.874,0.879,0.882,0.885,0.889,0.89,0,0,0.892,0,0,0,0,0,0,0,0,0,0,0,0,0,0,0,0,0,0,0,0,0,0,0,1.059,1.06,1.062,1.064,1.064,1.064,1.064,1.065,1.065,1.065,1.064,1.062,1.062,1.06,1.06,1.058,1.058,1.058,1.058,1.058,1.058,1.058,1.058,1.058,1.058,1.058,1.058,1.057,1.057,1.057,1.057,1.057,1.056,1.056,1.056,1.056,1.056,1.056,1.056,1.056,1.056,1.056,1.056,1.056,1.056,1.056,1.056,1.057,1.057
0,0,0,0,0,0,0,0,0,0,0,0,0,0,0,0,0,0,0,0,0,0,0,0,0,0,0.472,0.472,0.472,0.472,0.471,0.47,0.469,0.469,0.468,0.467,0.466,0.464,0.463,0.462,0.461,0.459,0.458,0,0.454,0.453,0.451,0.45,0.449,0.447,0.446,0.445,0.444,0.443,0.442,0.441,0.44,0.439,0.439,0.438,0.438,0.437,0.437,0.436,0.436,0.435,0.435,0.435,0.434,0.434,0.434,0.433,0.433,0.433,0.433,0.433,0.433,0.433,0.433,0.433,0.433,0.433,0.433,0.433,0.434,0.434,0.434,0.434,0.435,0.435,0.435,0.436,0.436,0.437,0.437,0.438,0.439,0.439,0.44,0.44,0.441,0.441,0.442,0.442,0.442,0.442,0.442,0.443,0.443,0.443,0.443,0.443,0.444,0.444,0.444,0.444,0.445,0.445,0.445,0.446,0.446,0.446,0.447,0.447,0.447,0.447,0.447,0.447,0.447,0.447,0.447,0.447,0.447,0.447,0.447,0.447,0.447,0.447,0.447,0.447,0.447,0.447,0.447,0.447,0.447,0.448,0.448,0.449,0.45,0.451,0.452,0.453,0.454,0.456,0.457,0.458,0.459,0.461,0.462,0.463,0.464,0.464,0.465,0.466,0.466,0.467,0.467,0.467,0.468,0.468,0.468,0.468,0.468,0.468,0.468,0.469,0.469,0.469,0.469,0.469,0.469,0.469,0.47,0.47,0.47,0.47,0.47,0.47,0.471,0.471,0.471,0.471,0.472,0.472,0.472,0.473,0.474,0.474,0.475,0.475,0.476,0.476,0.477,0.477,0.478,0.479,0.48,0.481,0.482,0.484,0.485,0.487,0.488,0.49,0.491,0.491,0.492,0.491,0.49,0.488,0.487,0.485,0.484,0.483,0.482,0.483,0.484,0.485,0,0.49,0.492,0.494,0.496,0.497,0.497,0.498,0.499,0.499,0.499,0.5,0.5,0.5,0.501,0.501,0.501,0.502,0.502,0.503,0.503,0.503,0.504,0.504,0.504,0.504,0.504,0.505,0.505,0.505,0.505,0.506,0.506,0.506,0.506,0.506,0.507,0.507,0.507,0.507,0.508,0.508,0.509,0.51,0.51,0.511,0.512,0.514,0.515,0.515,0.516,0.517,0.518,0.519,0.519,0.519,0.519,0.519,0.519,0.519,0.519,0.52,0.52,0.52,0.521,0.521,0.522,0.522,0.523,0.524,0.526,0.527,0.528,0.53,0.532,0.534,0.535,0.537,0.538,0.54,0.541,0.543,0.544,0.545,0.546,0.547,0.548,0.548,0.549,0.549,0.55,0.549,0.55,0.55,0.55,0,0,0,0,0,0.656,0.656,0.656,0.655,0.655,0.661,0.67,0.679,0,0.692,0.697,0.7,0.702,0.702,0.704,0.705,0.706,0.708,0.709,0.71,0.712,0.714,0.715,0.716,0.717,0.719,0.72,0.722,0.723,0.724,0.726,0.727,0.729,0.731,0.732,0.733,0.734,0.736,0.737,0.739,0.741,0.743,0.744,0.746,0.748,0.75,0.752,0.753,0.755,0.756,0.757,0.758,0.759,0.76,0.761,0.762,0.762,0.763,0.763,0.764,0.765,0.766,0.767,0.768,0.769,0.771,0.772,0.773,0.774,0.776,0.777,0.778,0.779,0.78,0.782,0.783,0.784,0.785,0.788,0.789,0.791,0.793,0.793,0.795,0.797,0.798,0.8,0.801,0.802,0.804,0.805,0.807,0.808,0.81,0.811,0.813,0.815,0.816,0.817,0.818,0.819,0.82,0.821,0.822,0.822,0.823,0.823,0.824,0.825,0.825,0.826,0.826,0.827,0.828,0.829,0.83,0.831,0.831,0.832,0.833,0.834,0.835,0.836,0.838,0.84,0.842,0.844,0.846,0.849,0.852,0.857,0.862,0.866,0.872,0.877,0.882,0.887,0.888,0.89,0.892,0,0.893,0.893,0,0,0,0,0,0,0,0,0,0,0,0,0,0,0,0,0,0,0,1.058,1.059,1.058,1.059,1.06,1.062,1.063,1.064,1.064,1.065,1.066,1.067,1.065,1.066,1.064,1.064,1.063,1.063,1.062,1.06,1.059,1.059,1.06,1.06,1.06,1.06,1.06,1.059,1.059,1.059,1.059,1.058,1.058,1.058,1.057,1.057,1.057,1.057,1.057,1.057,1.057,1.057,1.057,1.057,1.056,1.056,1.056,1.056,1.056,1.056,1.057,1.057,1.058
0,0,0,0,0,0,0,0,0,0,0,0,0,0,0,0,0,0,0,0,0,0,0,0,0,0,0.472,0.472,0.471,0.471,0.471,0.47,0.469,0.469,0.468,0.467,0.466,0.464,0.463,0.462,0.461,0.459,0.458,0.456,0.455,0.453,0.452,0.45,0.449,0.448,0.447,0.445,0.445,0.443,0.442,0.442,0.441,0.44,0.439,0.439,0.438,0.438,0.438,0.437,0.437,0.436,0.436,0.436,0.435,0.435,0.435,0.434,0.434,0.434,0.434,0.433,0.433,0.433,0.433,0.433,0.433,0.433,0.434,0.434,0.434,0.434,0.434,0.435,0.435,0.435,0.435,0.436,0.436,0.437,0.437,0.438,0.438,0.439,0.44,0.44,0.44,0.441,0.441,0.441,0.442,0.442,0.442,0.442,0.442,0.443,0.443,0.443,0.443,0.443,0.444,0.444,0.444,0.445,0.445,0.445,0.446,0.446,0.447,0.447,0.447,0.447,0.447,0.447,0.447,0.447,0.447,0.447,0.447,0.447,0.447,0.447,0.446,0.446,0.446,0.446,0.447,0.447,0.447,0.447,0.447,0.447,0.448,0.449,0.45,0.45,0.451,0.452,0.454,0.455,0.457,0.458,0.459,0.461,0.462,0.463,0.464,0.465,0.465,0.466,0.467,0.467,0.467,0.468,0.468,0.468,0.468,0.468,0.469,0.469,0.469,0.469,0.469,0.469,0.469,0.47,0.47,0.47,0.47,0.47,0.47,0.471,0.471,0.471,0.471,0.471,0.471,0.472,0.472,0.472,0.473,0.473,0.474,0.474,0.475,0.475,0.476,0.476,0.477,0.477,0.478,0.479,0.48,0.481,0.482,0.484,0.485,0.486,0.488,0.489,0.49,0.491,0.491,0.491,0.489,0.488,0.486,0.485,0.484,0.482,0.482,0.482,0.484,0.486,0.488,0.491,0.493,0.495,0.497,0.498,0.498,0.499,0.499,0.5,0.5,0.5,0.501,0.501,0.501,0.502,0.503,0.503,0.503,0.504,0.504,0.504,0.505,0.505,0.505,0.505,0.506,0.506,0.506,0.506,0.506,0.506,0.507,0.507,0.507,0.507,0.508,0.509,0.509,0.51,0.51,0.511,0.511,0.512,0.513,0.514,0.515,0.515,0.517,0.517,0.518,0.519,0.52,0.52,0.52,0.52,0.52,0.52,0.52,0.52,0.521,0.521,0.521,0.521,0.521,0.522,0.522,0.524,0.525,0.526,0.527,0.528,0.53,0.532,0.534,0.535,0.537,0.538,0.54,0.541,0.543,0.544,0.545,0.546,0.547,0.548,0.549,0.549,0.55,0.55,0.55,0.551,0.551,0.551,0,0,0,0,0.655,0.656,0.656,0.656,0.656,0.656,0.656,0.662,0.67,0,0,0,0.697,0.701,0.703,0.704,0.705,0.706,0.707,0.709,0.71,0.712,0.713,0.715,0.716,0.717,0.719,0.72,0.721,0.723,0.724,0.726,0.727,0.729,0.73,0.731,0.733,0.735,0.736,0.738,0.74,0.741,0.743,0.745,0.747,0.749,0.75,0.752,0.754,0.755,0.756,0.757,0.759,0.76,0.76,0.761,0.761,0.762,0.763,0.763,0.764,0.765,0.765,0.766,0.767,0.769,0.77,0.772,0.773,0.774,0.775,0.776,0.777,0.779,0.78,0.781,0.783,0.784,0.785,0.787,0.789,0.79,0.792,0.793,0.795,0.796,0.798,0.799,0.801,0.802,0.803,0.805,0.806,0.807,0.808,0.81,0.812,0.813,0.815,0.816,0.817,0.818,0.82,0.821,0.821,0.822,0.822,0.823,0.823,0.824,0.825,0.825,0.826,0.826,0.826,0.828,0.828,0.83,0.83,0.831,0.832,0.833,0.834,0.835,0.836,0.838,0.84,0.841,0.844,0.847,0.85,0.854,0.858,0.864,0.869,0.875,0.88,0.884,0.889,0.89,0.892,0.894,0.895,0.895,0.897,0,0,0,0,0,0,0,0,1.052,1.052,1.053,0,0,0,0,0,1.059,0,0,1.059,1.059,1.059,1.059,1.06,1.062,1.064,1.064,1.065,1.066,1.067,1.067,1.067,1.066,1.065,1.064,1.064,1.063,1.063,1.063,1.062,1.062,1.062,1.062,1.063,1.062,1.062,1.062,1.06,1.06,1.06,1.059,1.059,1.058,1.058,1.058,1.058,1.058,1.058,1.057,1.057,1.057,1.057,1.057,1.057,1.056,1.056,1.056,1.057,1.057,1.057,1.058,1.058
0,0,0,0,0,0,0,0,0,0,0,0,0,0,0,0,0,0,0,0,0,0,0,0,0,0,0.472,0.472,0.471,0.471,0.471,0.47,0.47,0.469,0.468,0.467,0.465,0.464,0.463,0.462,0.461,0.459,0.458,0.456,0.455,0.454,0.452,0.451,0.45,0.449,0.448,0.446,0.445,0.444,0.443,0.443,0.442,0.441,0.44,0.44,0.439,0.439,0.439,0.438,0.438,0.437,0.437,0.437,0.436,0.436,0.436,0.435,0.435,0.435,0.434,0.434,0.434,0.434,0.434,0.434,0.434,0.434,0.434,0.434,0.434,0.434,0.435,0.435,0.435,0.435,0.435,0.436,0.436,0.436,0.437,0.438,0.438,0.439,0.439,0.44,0.44,0.44,0.441,0.441,0.441,0.441,0.442,0.442,0.442,0.442,0.442,0.442,0.443,0.443,0.443,0.443,0.444,0.444,0.445,0.445,0.446,0.446,0.446,0.447,0.447,0.447,0.447,0.447,0.447,0.447,0.447,0.447,0.447,0.447,0.447,0.447,0.446,0.446,0.446,0.446,0.446,0.446,0.446,0.447,0.447,0.447,0.448,0.448,0.449,0.45,0.451,0.452,0.453,0.455,0.456,0.458,0.459,0.461,0.462,0.463,0.464,0.465,0.466,0.467,0.467,0.467,0.468,0.468,0.468,0.469,0.469,0.469,0.469,0.469,0.469,0.469,0.469,0.47,0.47,0.47,0.47,0.47,0.47,0.471,0.471,0.471,0.471,0.471,0.471,0.472,0.472,0.472,0.472,0.473,0.473,0.474,0.474,0.475,0.475,0.476,0.476,0.477,0.477,0.478,0.479,0.479,0.48,0.481,0.482,0.484,0.485,0.486,0.488,0.489,0.49,0.49,0.49,0.49,0.489,0.487,0,0.484,0.483,0.482,0.482,0.483,0.485,0.487,0.489,0.492,0.495,0.497,0.498,0.499,0.499,0.5,0.5,0.501,0.501,0.501,0.501,0.502,0.502,0.503,0.504,0.504,0.504,0.504,0.505,0.505,0.506,0.506,0.506,0.506,0.506,0.507,0.507,0.507,0.507,0.507,0.507,0.508,0.508,0.509,0.509,0.51,0.51,0.511,0.512,0.513,0.513,0.514,0.515,0.515,0.516,0.517,0.518,0.519,0.52,0.52,0.521,0.521,0.521,0.521,0.521,0.521,0.521,0.521,0.522,0.522,0.522,0.522,0.522,0.523,0.524,0.525,0.526,0.527,0.529,0.53,0.532,0.534,0.535,0.537,0.538,0.54,0.542,0.543,0.544,0.546,0.546,0.548,0.548,0.549,0.55,0.55,0.551,0.551,0.551,0.551,0.551,0.552,0,0,0,0,0.656,0.656,0.656,0.656,0.657,0.658,0.659,0.664,0,0,0,0,0.699,0.702,0.704,0.705,0.705,0.707,0.709,0.71,0.711,0.713,0.714,0.716,0.717,0.718,0.72,0.721,0.722,0.724,0.725,0.726,0.728,0.729,0.731,0.733,0.735,0.736,0.738,0.74,0.742,0.744,0.745,0.747,0.749,0.751,0.752,0.754,0.755,0.756,0.758,0.759,0.76,0.76,0.761,0.762,0.762,0.763,0.764,0.764,0.765,0.766,0.767,0.768,0.769,0.77,0.771,0.772,0.773,0.775,0.776,0.777,0.778,0.779,0.78,0.782,0.783,0.785,0.786,0.788,0.79,0.792,0.793,0.794,0.796,0.797,0.798,0.8,0.801,0.802,0.804,0.805,0.807,0.808,0.809,0.811,0.812,0.814,0.815,0.816,0.817,0.818,0.82,0.821,0.822,0.823,0.823,0.823,0.824,0.825,0.825,0.826,0.826,0.826,0.826,0.828,0.828,0.83,0.83,0.831,0.832,0.833,0.834,0.835,0.836,0.838,0.84,0.842,0.845,0.847,0.851,0.854,0.858,0.864,0.869,0.875,0.881,0.886,0.889,0.892,0.893,0.894,0.895,0.897,0,0,0,0,0,0,0,1.055,0,1.054,1.054,1.055,1.056,0,0,1.058,0,1.06,1.06,0,1.059,1.059,1.06,1.06,1.062,1.063,1.064,1.065,1.067,1.067,1.068,1.068,1.067,1.067,1.066,1.066,1.065,1.065,1.064,1.064,1.063,1.063,1.064,1.064,1.064,1.064,1.063,1.063,1.062,1.062,1.062,1.06,1.059,1.059,1.059,1.058,1.058,1.058,1.058,1.058,1.058,1.058,1.057,1.057,1.057,1.057,1.057,1.057,1.057,1.057,1.058,1.058,1.059
0,0,0,0,0,0,0,0,0,0,0,0,0,0,0,0,0,0,0,0,0,0,0,0,0,0,0.472,0.471,0.471,0.471,0.471,0.47,0.47,0.469,0.468,0.467,0.465,0.464,0.463,0.461,0.46,0.458,0.457,0.456,0.455,0.453,0.452,0.451,0.45,0.449,0.448,0.447,0.446,0.445,0.444,0.443,0.443,0.442,0.441,0.441,0.44,0.44,0.44,0.439,0.439,0.439,0.438,0.438,0.438,0.437,0.437,0.436,0.436,0.436,0.435,0.435,0.435,0.435,0.435,0.435,0.434,0.434,0.435,0.435,0.435,0.435,0.435,0.435,0.435,0.435,0.435,0.436,0.436,0.436,0.437,0.437,0.438,0.438,0.439,0.439,0.439,0.44,0.44,0.44,0.44,0.441,0.441,0.441,0.441,0.442,0.442,0.442,0.442,0.442,0.443,0.443,0.443,0.444,0.444,0.445,0.445,0.446,0.446,0.447,0.447,0.448,0.448,0.448,0.448,0.448,0.448,0.447,0.447,0.447,0.447,0.447,0.446,0.446,0.446,0.446,0.446,0.446,0.446,0.447,0.447,0.447,0.448,0.448,0.449,0.45,0.451,0.452,0.453,0.455,0.456,0.458,0.459,0.461,0.462,0.463,0.464,0.465,0.466,0.467,0.467,0.468,0.468,0.468,0.469,0.469,0.469,0.469,0.469,0.469,0.47,0.47,0.47,0.47,0.47,0.47,0.47,0.47,0.471,0.471,0.471,0.471,0.471,0.472,0.472,0.472,0.472,0.472,0.473,0.473,0.473,0.474,0.474,0.475,0.475,0.476,0.477,0.477,0.477,0.478,0.479,0.48,0.48,0.481,0.482,0.484,0.485,0.486,0.488,0.488,0.489,0.49,0.49,0.489,0.488,0.487,0,0.484,0.483,0.482,0.482,0.483,0.485,0.487,0.49,0.493,0.495,0.498,0.499,0.5,0.5,0.5,0.501,0.501,0.501,0.502,0.502,0.503,0.503,0.504,0.504,0.504,0.505,0.505,0.506,0.506,0.506,0.506,0.507,0.507,0.507,0.507,0.507,0.508,0.508,0.508,0.508,0.509,0.509,0.51,0.51,0.511,0.512,0.513,0.514,0.514,0.515,0.515,0.517,0.517,0.518,0.519,0.52,0.52,0.521,0.522,0.522,0.522,0.522,0.522,0.522,0.522,0.522,0.522,0.522,0.522,0.523,0.523,0.523,0.524,0.525,0.526,0.527,0.529,0.53,0.532,0.534,0.536,0.537,0.539,0.541,0.542,0.543,0.545,0.546,0.547,0.548,0.549,0.549,0.55,0.551,0.551,0.552,0.552,0.552,0.552,0.552,0.552,0,0,0,0,0.656,0.656,0.657,0.657,0.658,0.66,0.662,0,0,0,0,0,0.7,0.703,0.705,0.706,0.707,0.708,0.709,0.711,0.712,0.714,0.715,0.716,0.718,0.719,0.721,0.722,0.723,0.725,0.726,0.727,0.729,0.731,0.732,0.734,0.736,0.738,0.74,0.742,0.744,0.746,0.748,0.749,0.751,0.752,0.754,0.755,0.756,0.758,0.759,0.76,0.761,0.761,0.762,0.762,0.763,0.763,0.764,0.765,0.766,0.766,0.767,0.769,0.77,0.771,0.772,0.773,0.774,0.776,0.777,0.777,0.778,0.779,0.781,0.783,0.784,0.785,0.787,0.789,0.791,0.793,0.795,0.796,0.797,0.797,0.799,0.8,0.802,0.803,0.804,0.806,0.807,0.808,0.81,0.811,0.812,0.814,0.815,0.816,0.817,0.818,0.82,0.821,0.822,0.822,0.823,0.823,0.824,0.825,0.825,0.826,0.826,0.826,0.827,0.828,0.829,0.83,0.83,0.831,0.832,0.833,0.834,0.836,0.837,0.838,0.84,0.843,0.845,0.848,0.851,0.854,0.86,0.865,0.871,0.875,0.881,0.886,0.89,0.892,0.894,0.894,0.896,0.897,0,0,0,0,0,0,1.059,1.057,1.057,1.057,1.056,1.056,1.058,1.058,1.059,1.06,0,1.062,0,0,1.062,1.062,1.06,1.062,1.063,1.064,1.065,1.066,1.066,1.067,1.067,1.068,1.068,1.067,1.067,1.066,1.066,1.066,1.065,1.065,1.065,1.064,1.065,1.065,1.065,1.065,1.064,1.064,1.063,1.063,1.062,1.062,1.06,1.059,1.059,1.059,1.058,1.058,1.058,1.058,1.058,1.058,1.058,1.058,1.057,1.057,1.057,1.058,1.058,1.058,1.059,1.059,1.06
0,0,0,0,0,0,0,0,0,0,0,0,0,0,0,0,0,0,0,0,0,0,0,0,0,0,0.471,0.471,0.471,0.471,0.471,0.47,0.47,0.469,0.468,0.467,0.465,0.464,0.463,0.461,0.46,0.458,0.457,0.456,0.455,0.454,0.453,0.452,0.451,0.45,0.449,0.448,0.447,0.446,0.445,0.445,0.444,0.443,0.443,0.442,0.442,0.441,0.441,0.44,0.44,0.44,0.439,0.439,0.439,0.438,0.438,0.438,0.437,0.437,0.436,0.436,0.436,0.436,0.435,0.435,0.435,0.435,0.435,0.435,0.435,0.435,0.435,0.435,0.435,0.435,0.436,0.436,0.436,0.436,0.436,0.437,0.437,0.438,0.438,0.439,0.439,0.439,0.439,0.44,0.44,0.44,0.44,0.441,0.441,0.441,0.441,0.442,0.442,0.442,0.442,0.443,0.443,0.444,0.444,0.445,0.445,0.446,0.447,0.447,0.448,0.448,0.448,0.448,0.448,0.448,0.448,0.448,0.448,0.447,0.447,0.447,0.447,0.446,0.446,0.446,0.446,0.446,0.446,0.447,0.447,0.447,0.448,0.449,0.45,0.45,0.451,0.453,0.454,0.455,0.457,0.458,0.46,0.461,0.463,0.464,0.465,0.466,0.466,0.467,0.468,0.468,0.468,0.469,0.469,0.469,0.469,0.47,0.47,0.47,0.47,0.47,0.47,0.47,0.47,0.47,0.471,0.471,0.471,0.471,0.471,0.472,0.472,0.472,0.472,0.472,0.473,0.473,0.473,0.473,0.474,0.474,0.474,0.475,0.475,0.476,0.477,0.477,0.478,0.478,0.479,0.48,0.481,0.481,0.482,0.484,0.485,0.486,0.487,0.488,0.489,0.489,0.489,0.489,0.488,0.486,0.485,0.484,0.482,0.482,0.481,0.483,0.485,0.487,0.49,0.493,0.496,0.498,0.5,0.5,0.5,0.501,0.501,0.501,0.502,0.502,0.503,0.503,0.504,0.504,0.505,0.505,0.506,0.506,0.506,0.507,0.507,0.507,0.508,0.508,0.508,0.508,0.508,0.509,0.509,0.509,0.509,0.51,0.51,0.511,0.511,0.512,0.513,0.514,0.515,0.516,0.516,0.517,0.518,0.519,0.519,0.52,0.521,0.521,0.522,0.522,0.523,0.523,0.523,0.523,0.523,0.523,0.523,0.523,0.523,0.523,0.524,0.524,0.524,0.525,0.526,0.527,0.529,0.53,0.532,0.533,0.535,0.537,0.539,0.541,0.542,0.544,0.545,0.546,0.547,0.548,0.549,0.55,0.55,0.551,0.551,0.552,0.552,0.552,0.552,0.553,0.553,0,0,0,0,0.656,0.657,0.657,0.657,0.658,0.66,0.662,0,0,0,0,0,0.699,0.703,0.705,0.706,0.707,0.708,0.709,0.71,0.712,0.713,0.715,0.716,0.717,0.719,0.72,0.721,0.722,0.723,0.725,0.726,0.728,0.73,0.731,0.734,0.736,0.738,0.74,0.743,0.745,0.747,0.748,0.75,0.751,0.753,0.754,0.755,0.756,0.757,0.759,0.76,0.76,0.761,0.761,0.762,0.762,0.763,0.764,0.765,0.765,0.766,0.767,0.769,0.77,0.771,0.772,0.773,0.774,0.775,0.776,0.777,0.778,0.779,0.78,0.782,0.783,0.785,0.786,0.788,0.79,0.792,0.794,0.796,0.797,0.797,0.798,0.8,0.801,0.802,0.804,0.805,0.806,0.808,0.809,0.811,0.812,0.813,0.814,0.815,0.816,0.817,0.818,0.82,0.821,0.822,0.822,0.823,0.823,0.824,0.825,0.825,0.825,0.826,0.826,0.827,0.828,0.829,0.83,0.83,0.831,0.832,0.833,0.834,0.835,0.837,0.838,0.84,0.843,0.845,0.849,0.852,0.855,0.86,0.865,0.87,0.875,0.88,0.884,0.889,0.892,0.893,0.895,0.897,0,0,0,0,0,1.063,1.063,1.06,1.059,1.059,1.058,1.058,1.058,1.059,1.059,1.06,1.06,1.062,1.063,1.062,1.063,1.062,1.062,1.062,1.063,1.064,1.065,1.065,1.066,1.067,1.067,1.068,1.068,1.068,1.067,1.067,1.066,1.066,1.066,1.066,1.066,1.066,1.066,1.066,1.066,1.066,1.066,1.065,1.064,1.063,1.063,1.062,1.06,1.06,1.06,1.059,1.059,1.059,1.058,1.059,1.059,1.058,1.058,1.058,1.058,1.058,1.058,1.058,1.058,1.058,1.059,1.06,1.062,1.062
0,0,0,0,0,0,0,0,0,0,0,0,0,0,0,0,0,0,0,0,0,0,0,0,0,0,0.471,0.471,0.471,0.471,0.47,0.47,0.47,0.469,0.468,0.467,0.465,0.464,0.462,0.461,0.459,0.458,0.457,0.456,0.455,0.454,0.453,0.452,0.451,0.45,0.45,0.449,0.448,0.447,0.446,0.446,0.445,0.444,0.444,0.443,0.443,0.442,0.442,0.442,0.441,0.441,0.44,0.44,0.44,0.439,0.439,0.439,0.438,0.438,0.438,0.437,0.437,0.437,0.436,0.436,0.436,0.436,0.436,0.436,0.436,0.436,0.436,0.436,0.436,0.436,0.436,0.436,0.436,0.436,0.436,0.437,0.437,0.437,0.438,0.438,0.438,0.439,0.439,0.439,0.439,0.44,0.44,0.44,0.44,0.441,0.441,0.441,0.442,0.442,0.442,0.442,0.443,0.444,0.444,0.445,0.445,0.446,0.447,0.448,0.448,0.449,0.449,0.449,0.449,0.449,0.449,0.449,0.448,0.448,0.448,0.447,0.447,0.447,0.447,0.446,0.447,0.447,0.447,0.447,0.447,0.448,0.449,0.449,0.45,0.451,0.452,0.453,0.454,0.456,0.457,0.459,0.46,0.462,0.463,0.464,0.465,0.466,0.467,0.468,0.468,0.468,0.469,0.469,0.469,0.47,0.47,0.47,0.47,0.47,0.47,0.47,0.47,0.471,0.471,0.471,0.471,0.471,0.471,0.472,0.472,0.472,0.472,0.472,0.473,0.473,0.473,0.473,0.473,0.474,0.474,0.474,0.475,0.475,0.476,0.476,0.477,0.478,0.478,0.479,0.479,0.48,0.481,0.481,0.482,0.483,0.484,0.486,0.487,0.488,0.488,0.489,0.489,0.488,0.488,0.486,0.485,0.484,0.482,0.482,0.482,0.483,0.485,0.488,0,0.493,0.496,0.498,0.5,0.5,0.501,0.501,0.502,0.502,0.502,0.503,0.503,0.504,0.504,0.505,0.505,0.506,0.506,0.506,0.507,0.507,0.508,0.508,0.508,0.509,0.509,0.509,0.509,0.509,0.509,0.51,0.51,0.51,0.511,0.511,0.512,0.513,0.514,0.515,0.516,0.517,0.518,0.518,0.519,0.52,0.521,0.521,0.522,0.522,0.523,0.523,0.524,0.524,0.524,0.524,0.524,0.524,0.524,0.524,0.524,0.524,0.525,0.525,0.525,0.526,0.528,0.528,0.53,0.532,0.533,0.535,0.537,0.539,0.541,0.542,0.544,0.545,0.546,0.547,0.548,0.549,0.55,0.55,0.551,0.551,0.552,0.552,0.553,0.553,0.553,0.553,0,0,0,0.657,0.657,0.657,0.657,0.657,0.657,0.659,0.662,0.665,0,0,0,0,0,0.703,0.705,0.707,0.708,0.709,0.709,0.711,0.712,0.713,0.714,0.715,0.717,0.718,0.72,0.721,0.722,0.723,0.725,0.726,0.728,0.73,0.731,0.733,0.735,0.738,0.74,0.743,0.745,0.747,0.749,0.75,0.752,0.753,0.754,0.755,0.756,0.757,0.759,0.76,0.76,0.761,0.761,0.762,0.762,0.763,0.763,0.764,0.765,0.766,0.767,0.768,0.77,0.771,0.771,0.772,0.773,0.774,0.776,0.776,0.777,0.778,0.779,0.78,0.782,0.783,0.785,0.787,0.789,0.79,0.793,0.794,0.796,0.797,0.798,0.799,0.8,0.801,0.802,0.804,0.805,0.807,0.808,0.81,0.811,0.812,0.813,0.814,0.815,0.816,0.817,0.818,0.82,0.82,0.822,0.822,0.823,0.823,0.824,0.825,0.825,0.825,0.825,0.826,0.827,0.828,0.829,0.83,0.83,0.831,0.832,0.833,0.834,0.835,0.837,0.839,0.84,0.843,0.846,0.849,0.852,0.855,0.859,0.863,0.868,0.873,0.878,0.883,0.889,0.892,0.893,0,0,0,0,0,0,0,1.064,1.064,1.062,1.06,1.06,1.06,1.059,1.059,1.06,1.06,1.06,1.062,1.062,1.063,1.064,1.064,1.063,1.064,1.064,1.064,1.064,1.065,1.066,1.066,1.066,1.067,1.067,1.067,1.067,1.067,1.067,1.067,1.066,1.066,1.066,1.066,1.066,1.066,1.066,1.066,1.067,1.066,1.065,1.065,1.063,1.063,1.062,1.062,1.06,1.06,1.059,1.059,1.059,1.059,1.059,1.059,1.059,1.059,1.059,1.059,1.059,1.059,1.059,1.059,1.059,1.06,1.062,1.063,1.064
0,0,0,0,0,0,0,0,0,0,0,0,0,0,0,0,0,0,0,0,0,0,0,0,0,0,0.471,0.471,0.471,0.471,0.47,0.47,0.47,0.469,0.468,0.467,0.465,0.464,0.462,0.461,0.459,0.458,0.456,0.455,0.455,0.454,0.453,0.452,0.451,0.451,0.45,0.449,0.449,0.448,0.447,0.447,0.446,0.445,0.445,0.444,0.444,0.443,0.443,0.443,0.442,0.442,0.442,0.441,0.441,0.44,0.44,0.44,0.439,0.439,0.438,0.438,0.438,0.438,0.437,0.437,0.437,0.437,0.436,0.436,0.436,0.436,0.436,0.436,0.436,0.436,0.436,0.436,0.436,0.436,0.436,0.436,0.437,0.437,0.437,0.438,0.438,0.438,0.438,0.439,0.439,0.439,0.439,0.44,0.44,0.44,0.441,0.441,0.441,0.442,0.442,0.442,0.443,0.444,0.444,0.445,0.446,0.447,0.448,0.448,0.449,0.45,0.45,0.45,0.45,0.45,0.45,0.45,0.449,0.449,0.448,0.448,0.448,0.448,0.447,0.447,0.447,0.447,0.447,0.448,0.448,0.448,0.449,0.45,0.451,0.452,0.453,0.454,0.455,0.456,0.458,0.459,0.461,0.462,0.463,0.465,0.466,0.467,0.467,0.468,0.469,0.469,0.469,0.47,0.47,0.47,0.47,0.47,0.47,0.471,0.471,0.471,0.471,0.471,0.471,0.471,0.472,0.472,0.472,0.472,0.473,0.473,0.473,0.473,0.473,0.473,0.474,0.473,0.474,0.474,0.475,0.475,0.475,0.476,0.476,0.477,0.477,0.478,0.479,0.479,0.479,0.48,0.481,0.481,0.482,0.483,0.484,0.485,0.486,0.487,0.488,0.488,0.488,0.488,0.487,0.486,0.485,0.484,0.483,0.482,0.482,0.484,0.485,0.488,0,0.493,0.496,0.499,0.5,0.501,0.501,0.501,0.502,0.503,0.503,0.504,0.504,0.504,0.505,0.505,0.506,0.506,0.507,0.507,0.507,0.508,0.508,0.509,0.509,0.509,0.51,0.51,0.51,0.51,0.51,0.51,0.511,0.511,0.511,0.512,0.513,0.514,0.515,0.516,0.517,0.518,0.519,0.519,0.52,0.521,0.522,0.522,0.523,0.523,0.524,0.524,0.524,0.525,0.525,0.525,0.525,0.525,0.525,0.525,0.525,0.525,0.526,0.526,0.527,0.528,0.529,0.53,0.532,0.533,0.535,0.537,0.539,0.541,0.542,0.544,0.545,0.546,0.547,0.548,0.549,0.55,0.551,0.551,0.551,0.552,0.552,0.553,0.553,0.553,0,0.658,0.658,0.658,0.658,0.657,0.658,0.658,0.658,0.658,0.658,0.66,0.664,0.668,0,0,0.69,0.697,0.704,0.706,0.707,0.708,0.709,0.709,0.711,0.712,0.713,0.715,0.716,0.717,0.718,0.72,0.721,0.722,0.724,0.725,0.726,0.728,0.73,0.731,0.733,0.736,0.738,0.74,0.743,0.745,0.747,0.749,0.751,0.752,0.754,0.755,0.756,0.757,0.757,0.759,0.759,0.76,0.761,0.761,0.762,0.762,0.762,0.763,0.763,0.764,0.765,0.766,0.767,0.769,0.77,0.771,0.772,0.773,0.774,0.775,0.776,0.777,0.778,0.778,0.779,0.781,0.783,0.784,0.786,0.788,0.789,0.791,0.793,0.795,0.797,0.797,0.798,0.799,0.8,0.801,0.802,0.804,0.805,0.806,0.808,0.81,0.811,0.812,0.813,0.814,0.815,0.816,0.817,0.818,0.819,0.82,0.821,0.822,0.823,0.823,0.824,0.825,0.825,0.825,0.825,0.826,0.827,0.828,0.828,0.829,0.83,0.831,0.831,0.833,0.834,0.835,0.837,0.839,0.84,0.843,0.846,0.849,0.852,0.855,0.858,0.862,0.867,0,0,0.881,0.887,0,0,0,0,0,0,0,0,1.065,1.064,1.064,1.064,1.063,1.062,1.062,1.062,1.062,1.062,1.062,1.062,1.062,1.063,1.064,1.065,1.065,1.064,1.064,1.064,1.064,1.065,1.066,1.066,1.066,1.066,1.067,1.067,1.067,1.067,1.066,1.067,1.067,1.067,1.066,1.066,1.066,1.066,1.066,1.066,1.066,1.066,1.066,1.065,1.064,1.064,1.063,1.062,1.062,1.06,1.06,1.06,1.059,1.059,1.059,1.059,1.059,1.059,1.059,1.059,1.059,1.059,1.06,1.06,1.06,1.06,1.062,1.063,1.064,1.065
0,0,0,0,0,0,0,0,0,0,0,0,0,0,0,0,0,0,0,0,0,0,0,0,0,0,0,0.471,0.471,0.471,0.471,0.47,0.47,0.469,0.468,0.466,0.465,0.464,0.462,0.461,0.459,0.458,0.456,0.455,0.455,0.454,0.453,0.452,0.452,0.451,0.45,0.45,0.449,0.449,0.448,0.448,0.447,0.446,0.446,0.445,0.445,0.445,0.444,0.444,0.443,0.443,0.443,0.442,0.442,0.441,0.441,0.44,0.44,0.44,0.439,0.439,0.439,0.438,0.438,0.438,0.438,0.437,0.437,0.437,0.437,0.437,0.436,0.436,0.436,0.436,0.436,0.436,0.436,0.436,0.436,0.436,0.436,0.437,0.437,0.437,0.437,0.438,0.438,0.438,0.438,0.439,0.439,0.439,0.44,0.44,0.44,0.441,0.441,0.441,0.442,0.442,0.443,0.444,0.444,0.445,0.446,0.447,0.448,0.449,0.45,0.45,0.451,0.451,0.451,0.451,0.451,0.451,0.45,0.45,0.45,0.449,0.449,0.449,0.448,0.448,0.448,0.448,0.449,0.449,0.449,0.45,0.45,0.451,0.452,0.453,0.454,0.455,0.456,0.457,0.459,0.46,0.461,0.463,0.464,0.465,0.466,0.467,0.468,0.469,0.469,0.469,0.469,0.47,0.47,0.47,0.47,0.471,0.471,0.471,0.471,0.471,0.471,0.471,0.472,0.472,0.472,0.473,0.473,0.473,0.473,0.473,0.473,0.474,0.474,0.474,0.474,0.474,0.474,0.475,0.475,0.475,0.476,0.476,0.477,0.477,0.478,0.479,0.479,0.479,0.48,0.48,0.481,0.481,0.482,0.483,0.484,0.485,0.486,0.487,0.488,0.488,0.488,0.488,0.487,0.486,0.485,0.484,0.483,0.483,0.483,0.484,0.486,0.488,0,0.493,0.496,0.498,0.5,0.5,0.501,0.502,0.502,0.503,0.503,0.504,0.504,0.505,0.506,0.506,0.506,0.507,0.507,0.508,0.508,0.509,0.509,0.509,0.51,0.51,0.51,0.51,0.51,0.51,0.511,0.511,0.511,0.512,0.512,0.513,0.514,0.514,0.515,0.516,0.517,0.518,0.519,0.52,0.521,0.522,0.522,0.523,0.523,0.524,0.524,0.525,0.525,0.525,0.526,0.526,0.526,0.526,0.526,0.526,0.526,0.526,0.527,0.527,0.528,0.529,0.53,0.532,0.533,0.535,0.537,0.538,0.54,0.542,0.544,0.545,0.547,0.548,0.549,0.549,0.55,0.551,0.551,0.552,0.552,0.552,0.553,0.553,0.553,0,0.658,0.658,0.658,0.658,0.658,0.658,0.658,0.658,0.658,0.658,0.658,0.662,0.666,0.672,0,0.687,0.694,0.701,0.706,0.707,0.708,0.709,0.71,0.711,0.712,0.713,0.715,0.715,0.717,0.718,0.72,0.721,0.722,0.724,0.725,0.726,0.728,0.73,0.731,0.733,0.736,0.738,0.74,0.743,0.745,0.747,0.749,0.751,0.752,0.754,0.755,0.756,0.757,0.758,0.759,0.759,0.76,0.761,0.761,0.761,0.762,0.762,0.762,0.763,0.764,0.764,0.765,0.766,0.767,0.769,0.77,0.771,0.772,0.773,0.774,0.776,0.776,0.777,0.778,0.779,0.78,0.782,0.783,0.785,0.787,0.788,0.79,0.792,0.793,0.795,0.797,0.797,0.798,0.799,0.8,0.801,0.802,0.803,0.804,0.806,0.807,0.809,0.81,0.812,0.813,0.814,0.815,0.816,0.817,0.818,0.819,0.82,0.82,0.822,0.822,0.823,0.823,0.824,0.825,0.825,0.825,0.826,0.826,0.828,0.828,0.829,0.83,0.831,0.831,0.833,0.834,0.835,0.837,0.839,0.841,0.843,0.846,0.849,0.852,0.855,0.858,0.862,0.865,0,0,0.879,0,0,0,0,0,0,0,0,1.066,1.066,1.065,1.065,1.064,1.064,1.063,1.063,1.063,1.062,1.063,1.063,1.063,1.063,1.064,1.065,1.066,1.066,1.066,1.065,1.064,1.065,1.065,1.066,1.066,1.066,1.066,1.066,1.067,1.067,1.066,1.066,1.066,1.066,1.066,1.066,1.066,1.065,1.065,1.065,1.065,1.065,1.065,1.065,1.065,1.064,1.063,1.063,1.062,1.062,1.06,1.06,1.06,1.06,1.06,1.06,1.06,1.06,1.06,1.06,1.06,1.06,1.06,1.062,1.062,1.062,1.062,1.063,1.064,1.066,1.066
